789.47 813.81 156.35
789.35 813.99 156.29
786.32 818.02 156.32
786.45 817.86 156.35
789.25 814.11 157.65
789.39 813.96 157.64
789.51 813.78 157.73
789.26 814.05 158.63
786.82 817.76 156.61
786.71 817.95 156.48
786.66 818.04 157.5
786.78 817.87 157.58
786.93 817.71 157.55
789.35 814.01 159.64
789.27 814.09 160.48
789.21 814.3 160.18
789.07 814.7 159.65
786.85 817.79 158.4
786.77 817.99 158.16
786.62 818.15 158.18
787.02 818.13 158.45
787.13 817.7 159.08
788.87 815.08 160.51
789.06 814.96 160.32
789.25 814.11 161.65
789.39 813.91 162.73
789.26 814.07 162.69
789.18 814.26 162.48
788.9 815.3 160.95
788.67 815.42 161.25
787.43 817.11 160.61
787.38 817.32 160.31
787.34 817.54 159.95
787.3 817.76 159.55
786.77 817.94 160.42
786.79 818.0 161.25
786.9 817.82 161.35
787.68 817.07 161.12
787.71 816.85 161.5
787.75 816.63 161.87
787.81 816.42 162.16
788.6 815.68 161.86
789.22 814.13 163.66
789.35 813.97 163.69
789.35 813.92 164.71
789.27 814.11 164.51
789.16 814.29 164.4
788.16 815.62 163.94
788.11 815.82 163.64
788.06 816.04 163.3
788.03 816.25 162.93
786.77 817.93 162.36
786.59 818.18 163.32
786.86 817.85 163.39
787.89 816.54 163.71
788.11 816.43 163.44
788.45 815.43 164.71
788.49 815.22 165.08
788.53 815.0 165.42
788.58 814.8 165.72
789.26 814.24 165.32
789.27 814.01 165.79
789.09 813.69 166.86
789.6 813.83 166.21
789.35 813.93 166.59
789.24 814.1 166.49
788.91 814.15 167.15
788.85 814.36 166.86
788.81 814.56 166.52
788.76 814.77 166.21
787.76 816.82 164.27
787.57 816.94 164.47
786.65 818.09 164.21
786.56 818.27 164.05
786.53 818.13 165.58
786.68 817.99 165.53
787.26 817.37 165.46
787.46 817.25 165.26
789.19 813.99 168.04
789.21 813.94 168.87
790.66 814.72 163.84
789.11 814.12 168.71
787.28 817.55 165.82
787.08 817.67 166.05
786.84 818.01 165.9
786.56 818.08 166.42
786.17 818.09 167.31
786.73 818.55 166.11
786.47 818.16 167.53
786.75 818.09 167.0
786.95 817.97 166.79
789.11 814.03 170.0
791.48 815.07 162.3
789.3 813.22 171.26
789.42 813.06 171.3
789.55 812.9 171.32
789.69 812.75 171.33
789.82 812.59 171.36
789.96 812.43 171.36
790.1 812.28 171.37
790.23 812.13 171.36
790.38 811.97 171.35
790.61 812.14 171.32
790.46 812.3 171.32
790.33 812.46 171.3
790.2 812.61 171.28
790.06 812.77 171.27
789.93 812.93 171.25
789.79 813.08 171.25
789.49 813.38 171.33
789.35 813.54 171.35
789.21 813.69 171.34
789.07 813.85 171.34
788.93 814.0 171.34
788.8 814.16 171.32
788.67 814.32 171.31
788.54 814.47 171.29
788.4 814.63 171.27
788.28 814.78 171.25
788.14 814.94 171.24
786.41 818.18 168.51
786.67 818.34 167.58
786.54 818.5 167.53
787.32 818.96 164.77
784.96 819.72 169.84
787.98 819.62 163.02
788.11 819.45 163.05
786.39 818.19 169.7
786.5 818.02 169.81
786.8 817.01 171.21
786.94 816.86 171.22
787.07 816.7 171.24
787.33 816.39 171.28
787.46 816.23 171.3
787.6 816.07 171.31
787.74 815.92 171.32
787.88 815.77 171.32
788.01 815.61 171.33
788.15 815.46 171.33
788.29 815.31 171.31
788.45 815.16 171.25
788.59 815.01 171.25
788.71 814.85 171.28
788.85 814.69 171.28
788.98 814.53 171.31
789.11 814.38 171.33
789.26 814.22 171.34
789.39 814.06 171.34
789.53 813.91 171.35
789.68 813.76 171.32
789.81 813.6 171.33
789.08 813.95 173.21
793.1 816.1 159.32
789.02 814.15 172.93
788.79 815.17 171.33
788.65 815.32 171.34
788.51 815.48 171.33
788.38 815.63 171.33
788.1 815.95 171.32
787.97 816.1 171.31
787.71 816.42 171.26
787.58 816.58 171.23
787.45 816.74 171.2
787.29 816.88 171.25
787.15 817.03 171.29
787.01 817.19 171.29
786.87 817.34 171.29
786.73 817.49 171.3
786.46 817.8 171.28
786.33 817.96 171.27
786.19 818.12 171.25
786.05 818.28 171.24
785.92 818.43 171.21
788.5 819.97 161.99
785.79 818.6 171.18
785.65 818.74 171.21
785.21 819.91 169.81
785.18 819.71 171.22
785.31 819.55 171.25
785.45 819.4 171.25
785.59 819.24 171.25
785.73 819.09 171.25
785.86 818.93 171.26
789.11 820.4 160.61
786.29 818.48 171.21
786.43 818.32 171.21
786.43 818.09 171.71
786.16 817.7 173.14
786.69 818.01 171.25
786.83 817.85 171.27
786.96 817.7 171.29
787.09 817.54 171.3
787.23 817.38 171.31
787.36 817.23 171.31
787.5 817.08 171.32
787.64 816.92 171.31
787.78 816.77 171.32
788.55 816.5 170.08
789.2 814.11 173.58
789.44 814.0 173.22
793.79 816.31 158.25
794.19 816.59 157.49
786.35 817.86 173.15
786.87 818.17 171.31
786.38 818.12 172.54
786.59 818.48 171.3
786.46 818.63 171.29
786.32 818.79 171.3
786.18 818.95 171.29
786.04 819.1 171.28
785.91 819.26 171.26
785.79 819.42 171.23
785.65 819.58 171.21
785.52 819.73 171.19
785.39 819.89 171.18
785.59 820.25 169.95
785.43 820.26 171.27
785.74 820.45 170.14
785.56 820.11 171.27
785.71 819.95 171.27
785.85 819.8 171.27
789.86 821.01 159.34
786.38 818.23 173.29
786.5 818.06 173.38
786.71 817.95 173.12
794.75 817.02 156.28
786.87 818.23 173.2
790.39 821.51 158.1
791.06 821.94 156.85
791.35 821.87 156.34
791.2 820.02 164.2
796.82 821.79 157.11
797.16 822.26 156.17
797.31 822.35 156.71
797.43 822.39 157.16
797.31 822.57 157.05
797.56 822.61 157.47
796.87 822.02 156.69
796.77 822.24 156.78
795.19 820.2 159.93
794.74 816.95 156.6
794.5 816.72 156.99
794.38 816.92 156.97
791.37 822.02 156.49
791.2 822.19 156.28
791.02 821.82 157.08
794.16 819.2 161.92
794.15 816.55 157.66
793.88 816.48 158.06
790.74 821.75 157.51
790.55 821.44 158.07
793.53 816.36 158.53
793.66 816.16 158.58
793.32 816.15 159.08
790.31 821.2 158.56
790.17 821.39 158.47
789.98 821.12 159.12
792.9 816.02 159.35
792.68 815.76 159.93
792.56 815.96 159.91
792.93 817.99 164.22
789.68 820.81 159.46
789.55 821.01 159.39
789.29 820.75 159.99
789.41 820.56 160.01
792.28 815.72 160.52
792.4 815.52 160.53
792.11 815.44 161.03
792.45 817.45 165.21
789.13 820.48 160.58
788.93 820.18 161.14
792.21 817.15 165.7
791.78 815.36 161.61
791.9 815.15 161.61
791.6 815.09 162.1
791.48 815.29 162.09
788.63 820.11 161.68
788.35 819.86 162.35
789.88 819.54 166.18
789.53 814.05 156.44
791.19 815.04 162.75
789.62 813.82 156.34
791.31 814.84 162.79
791.02 814.77 163.31
789.6 813.96 158.0
789.63 814.28 158.59
789.34 814.34 157.85
789.57 819.44 166.65
787.06 817.92 157.08
786.6 818.18 156.19
788.16 819.58 162.87
788.05 819.77 162.87
787.8 819.5 163.51
787.91 819.3 163.52
786.96 818.04 158.81
787.13 817.87 159.02
787.36 817.75 159.47
787.54 817.59 159.73
789.15 815.02 160.23
789.19 814.76 159.93
789.4 814.33 159.82
789.53 814.14 159.92
790.75 814.51 163.96
790.47 814.45 164.46
789.47 814.26 161.3
788.78 815.48 161.31
788.73 815.73 161.55
787.79 817.08 161.05
787.61 817.23 160.78
787.41 817.37 160.43
786.88 818.15 160.18
787.63 819.25 164.06
787.36 819.06 164.66
787.04 817.99 162.04
787.87 816.58 162.16
788.05 816.43 162.46
788.29 816.3 162.94
788.33 816.06 162.67
789.43 814.28 162.96
789.59 814.12 163.15
790.18 814.27 165.07
789.89 814.13 165.61
789.53 814.14 164.61
789.38 814.33 164.49
788.32 815.83 163.87
788.12 815.98 163.55
787.89 816.67 163.98
787.85 816.92 164.28
788.26 818.93 168.67
786.98 818.01 163.56
786.85 818.21 163.51
786.72 818.4 163.44
787.06 818.92 165.25
786.78 818.26 164.95
786.93 818.08 165.07
787.41 817.58 165.66
787.46 817.33 165.4
788.52 815.24 165.07
788.7 815.09 165.34
789.4 814.18 165.9
789.55 814.01 166.06
789.69 813.83 166.17
789.32 813.9 166.71
789.34 814.2 167.26
788.97 814.51 166.71
788.79 814.65 166.41
787.02 817.91 166.61
786.98 818.17 166.91
786.73 818.27 166.35
786.63 818.48 166.4
786.59 818.31 167.82
786.41 818.18 167.07
789.36 814.1 168.97
789.24 813.72 168.02
790.64 812.4 171.25
790.53 812.61 171.25
790.24 812.38 170.08
790.42 812.81 171.25
789.48 814.38 171.12
789.24 814.19 170.13
787.88 816.29 169.65
787.0 818.47 170.62
786.64 818.22 169.2
786.06 818.06 167.3
785.64 820.18 171.2
785.75 819.98 171.21
785.87 819.78 171.24
785.98 819.59 171.24
786.09 819.39 171.25
786.21 819.19 171.26
786.32 819.0 171.27
786.44 818.8 171.28
786.55 818.6 171.29
786.66 818.41 171.3
786.78 818.2 171.31
786.89 818.01 171.31
787.12 817.61 171.32
787.23 817.41 171.32
787.34 817.21 171.31
787.45 817.02 171.33
787.56 816.81 171.32
787.68 816.61 171.33
787.79 816.42 171.32
787.9 816.22 171.32
788.01 816.02 171.32
788.13 815.81 171.34
788.24 815.61 171.32
788.34 815.42 171.3
788.44 815.2 171.26
788.55 815.01 171.26
788.66 814.81 171.26
788.78 814.61 171.27
788.89 814.42 171.28
789.01 814.22 171.3
789.25 814.12 171.82
789.24 813.82 171.31
789.35 813.63 171.32
789.58 813.23 171.34
789.69 813.04 171.35
789.81 812.83 171.36
789.92 812.64 171.36
790.03 812.44 171.37
790.14 812.24 171.37
789.26 814.09 173.16
789.12 814.28 173.06
787.66 815.72 171.22
787.47 816.14 171.35
787.35 816.34 171.33
787.24 816.53 171.34
787.12 816.73 171.31
787.02 816.93 171.33
786.9 817.13 171.31
786.78 817.33 171.31
786.67 817.53 171.3
786.92 818.27 173.21
786.44 817.93 171.29
786.55 818.28 172.16
786.33 818.12 171.29
786.21 818.32 171.28
786.1 818.52 171.27
785.98 818.72 171.25
785.87 818.91 171.24
785.75 819.11 171.22
785.64 819.31 171.22
785.52 819.5 171.2
785.4 819.7 171.16
785.18 820.09 171.15
786.49 818.26 173.62
786.5 817.99 173.24
