825.62 906.53 46.49
825.45 906.5 45.89
821.03 908.28 46.09
820.84 908.33 45.9
820.67 908.18 47.51
820.84 908.32 48.86
821.02 908.28 49.05
822.06 909.04 56.61
822.23 908.95 56.51
825.4 906.47 48.66
825.57 906.53 49.44
825.76 906.38 48.97
825.94 906.26 48.62
826.68 907.21 56.68
826.85 907.13 56.59
827.02 907.05 56.53
827.2 906.97 56.47
829.62 904.84 48.92
829.98 904.64 48.53
830.13 904.73 49.52
830.29 904.74 50.03
830.52 904.37 48.16
831.84 905.12 56.39
832.01 905.05 56.39
832.18 904.98 56.41
832.41 904.72 56.55
830.31 904.74 51.31
830.15 904.72 50.75
828.95 905.04 49.74
828.77 905.14 49.91
827.59 906.63 56.56
827.18 905.77 49.99
827.01 905.81 49.8
826.84 905.85 49.63
826.67 905.89 49.43
825.77 906.41 50.5
825.59 906.52 50.74
825.43 906.45 49.87
824.73 906.62 49.2
824.56 906.71 49.36
824.38 906.82 49.57
824.2 906.92 49.78
822.94 908.46 56.53
822.77 908.52 56.5
822.1 907.71 49.49
821.92 907.75 49.32
821.75 907.79 49.15
821.57 907.83 48.94
821.05 908.27 50.43
820.87 908.3 50.2
820.69 908.17 48.93
820.64 908.01 50.3
820.81 908.27 52.38
820.99 908.29 53.01
822.2 907.67 52.07
822.38 907.57 51.88
823.21 907.99 56.75
824.11 906.88 51.87
824.28 906.84 52.07
824.46 906.79 52.22
824.63 906.76 52.42
825.49 906.47 52.78
825.65 906.5 53.35
826.53 906.02 52.5
826.71 905.91 52.31
827.84 906.16 56.78
829.49 904.87 52.67
829.66 904.83 52.84
829.83 904.79 53.04
830.0 904.75 53.2
830.17 904.72 53.42
830.32 904.74 53.98
832.63 904.12 57.79
832.47 904.1 57.31
830.28 904.76 55.96
830.13 904.7 55.22
828.01 905.87 57.4
827.85 905.86 56.9
825.64 906.5 55.4
825.48 906.49 54.93
825.33 906.25 53.04
823.23 907.68 56.87
821.0 908.3 55.22
820.83 908.29 54.74
820.66 908.08 52.98
818.66 909.24 58.23
818.83 909.17 58.22
819.0 909.11 58.23
819.17 909.04 58.23
819.34 908.97 58.23
819.51 908.9 58.23
819.68 908.84 58.24
819.85 908.77 58.24
820.02 908.7 58.24
820.19 908.64 58.25
820.36 908.57 58.25
820.53 908.5 58.25
820.7 908.44 58.26
820.87 908.37 58.26
821.05 908.3 58.26
821.21 908.24 58.27
821.39 908.17 58.27
821.73 908.03 58.27
821.9 907.97 58.28
822.06 907.9 58.28
822.24 907.83 58.28
822.4 907.77 58.29
822.58 907.7 58.29
822.75 907.63 58.29
822.92 907.57 58.28
823.09 907.5 58.29
823.1 907.27 56.87
823.26 907.43 58.31
823.43 907.37 58.3
823.6 907.3 58.3
823.77 907.23 58.29
823.94 907.16 58.3
824.11 907.09 58.29
824.29 907.02 58.3
824.46 906.96 58.31
824.63 906.89 58.3
824.79 906.83 58.31
824.97 906.76 58.3
825.14 906.69 58.3
825.31 906.62 58.31
825.48 906.54 58.23
825.65 906.5 58.37
825.82 906.42 58.31
825.99 906.35 58.31
826.16 906.28 58.32
826.33 906.22 58.3
826.5 906.15 58.32
826.67 906.08 58.32
826.84 906.01 58.32
827.02 905.95 58.32
827.18 905.88 58.32
827.36 905.81 58.32
827.52 905.75 58.32
827.7 905.68 58.34
827.73 905.45 56.92
827.86 905.61 58.32
828.04 905.54 58.32
830.1 904.65 57.8
830.25 904.7 58.54
830.42 904.63 58.53
830.94 904.38 58.24
832.15 903.52 56.9
830.9 904.22 58.26
827.68 905.29 56.94
825.76 906.3 58.57
825.59 906.36 58.55
823.04 907.11 56.86
820.82 908.23 58.46
820.71 907.7 57.15
822.93 906.78 56.88
827.37 905.05 57.04
830.12 903.97 57.12
831.84 903.27 56.95
831.58 903.11 57.01
829.86 903.74 56.7
827.11 904.88 57.09
822.48 906.66 56.89
820.61 907.38 56.73
820.36 906.84 56.07
821.9 906.41 57.17
826.53 904.6 57.3
829.65 903.15 55.94
830.81 902.92 57.36
829.64 902.96 55.76
824.98 904.8 55.8
821.7 906.33 57.35
820.32 906.63 55.79
820.24 906.27 55.37
821.43 906.17 57.73
824.89 904.44 55.35
826.05 904.35 57.71
829.54 902.6 55.32
824.71 904.15 54.96
820.05 905.96 54.92
824.53 903.53 54.18
829.21 901.7 54.25
824.49 903.34 53.99
819.81 905.17 53.98
819.66 904.84 53.51
829.01 901.18 53.57
819.31 904.02 52.46
824.0 902.18 52.45
828.71 900.36 52.57
819.13 903.46 51.77
823.84 901.63 51.81
828.54 899.82 51.96
823.76 901.32 51.4
819.05 903.14 51.37
818.82 902.65 50.75
828.13 898.74 50.61
823.39 900.55 50.4
823.29 900.24 50.07
828.02 898.43 50.26
828.11 897.93 47.3
823.42 899.5 47.23
818.45 901.39 47.05
822.94 899.41 48.97
823.15 899.06 47.21
827.74 897.01 47.29
822.95 898.83 47.09
822.75 898.78 48.21
822.94 898.55 47.22
827.55 896.76 47.23
827.45 896.52 46.91
822.82 898.35 47.21
818.03 900.17 47.03
817.87 899.78 47.03
822.65 897.96 47.22
827.27 896.18 47.27
827.1 895.93 47.19
822.48 897.71 47.2
817.7 899.52 47.03
817.56 899.3 47.04
822.34 897.47 47.2
826.97 895.61 46.73
827.12 895.64 47.31
822.37 897.23 47.21
817.57 899.05 47.07
