446.41 990.2 54.14
446.54 990.08 54.3
446.74 990.06 54.03
446.88 990.1 54.9
446.63 990.04 55.5
446.47 990.12 55.5
446.37 990.29 55.13
446.38 990.42 55.56
446.44 990.19 56.25
446.57 990.07 56.42
446.96 990.16 56.39
446.69 990.07 57.13
446.51 990.11 57.33
446.38 990.24 57.11
446.32 990.48 56.44
446.32 990.5 57.37
446.39 990.27 58.02
446.51 990.14 58.26
446.68 990.08 58.13
446.95 990.19 57.33
446.73 990.08 59.45
446.54 990.11 59.69
446.41 990.23 59.5
446.35 990.47 58.82
443.14 993.83 54.05
443.3 993.74 54.08
446.41 990.31 60.16
446.52 990.16 60.48
446.69 990.1 60.38
446.95 990.19 59.63
448.51 988.41 63.84
446.73 990.1 61.3
446.54 990.12 61.55
446.41 990.25 61.36
446.35 990.48 60.7
443.18 993.78 55.17
443.05 993.91 54.95
443.0 994.13 55.34
443.07 993.89 56.02
443.21 993.78 56.16
443.39 993.74 55.96
443.66 993.87 55.05
446.37 990.48 61.72
446.43 990.25 62.38
446.56 990.13 62.57
446.76 990.11 62.29
448.7 988.67 63.76
448.88 988.92 63.8
448.39 988.8 65.04
446.78 990.12 63.44
446.58 990.12 63.77
446.45 990.24 63.6
446.38 990.46 62.98
443.44 993.76 57.07
443.23 993.76 57.43
443.1 993.86 57.31
443.03 994.1 56.64
443.08 994.02 57.57
443.17 993.83 58.04
443.33 993.75 58.02
443.55 993.79 57.53
446.43 990.42 63.8
446.5 990.21 64.41
446.65 990.13 64.42
446.89 990.17 63.86
447.04 990.41 62.8
447.94 989.27 65.03
448.09 989.19 65.06
448.24 989.11 65.08
448.39 989.03 65.08
448.55 988.94 65.1
449.03 989.05 63.89
449.1 989.22 64.0
448.02 989.45 65.08
447.87 989.53 65.07
447.57 989.7 65.03
446.87 990.19 64.6
446.63 990.14 65.21
446.48 990.22 65.21
446.41 990.43 64.62
443.58 993.86 58.05
443.33 993.77 58.8
443.16 993.83 58.87
443.06 994.0 58.49
443.08 994.01 59.35
443.19 993.84 59.72
443.35 993.78 59.63
443.61 993.87 58.87
446.43 990.45 65.48
446.5 990.23 66.07
446.64 990.14 66.13
446.88 990.21 65.5
447.11 990.24 65.01
447.25 990.15 65.07
447.4 990.06 65.08
447.55 989.98 65.09
448.78 988.75 67.08
448.92 989.0 67.14
448.44 988.89 68.35
448.29 988.97 68.34
448.14 989.05 68.34
447.99 989.13 68.31
446.86 990.2 66.73
446.62 990.15 67.29
446.48 990.24 67.23
446.41 990.45 66.65
446.63 990.81 65.06
446.49 990.91 64.97
443.62 993.88 60.0
443.72 994.06 59.23
443.36 993.78 60.81
443.19 993.83 60.92
443.08 993.99 60.59
443.1 994.04 61.24
443.2 993.85 61.71
443.36 993.78 61.67
443.6 993.85 61.01
446.13 991.34 65.04
446.27 991.26 65.07
446.58 991.09 65.09
446.48 990.28 68.0
446.61 990.16 68.18
446.8 990.15 67.87
447.65 989.58 68.3
447.94 989.42 68.35
448.09 989.33 68.36
448.24 989.25 68.38
448.56 988.52 70.28
448.62 988.72 70.27
447.7 989.77 68.37
447.55 989.85 68.36
447.39 989.93 68.36
447.25 990.02 68.32
447.13 990.14 68.11
446.75 990.16 68.72
446.56 990.18 68.97
446.45 990.33 68.66
446.19 991.53 65.09
446.04 991.61 65.08
445.88 991.69 65.07
445.74 991.78 65.04
445.59 991.87 64.99
443.54 993.82 62.01
443.32 993.79 62.48
443.17 993.87 62.49
443.08 994.07 61.97
443.1 994.02 63.02
443.21 993.86 63.35
443.38 993.82 63.19
445.15 992.38 64.97
445.29 992.28 65.04
445.74 992.04 65.09
446.47 990.3 69.67
446.6 990.18 69.83
446.81 990.2 69.39
446.96 990.43 68.39
447.26 990.28 68.38
447.4 990.18 68.44
448.29 988.78 71.61
448.79 988.91 70.32
448.22 989.17 71.68
448.07 989.25 71.66
447.92 989.33 71.65
447.78 989.41 71.64
447.63 989.5 71.61
446.68 990.18 70.97
446.52 990.24 71.06
446.59 991.0 68.38
446.44 991.08 68.37
446.29 991.16 68.36
446.14 991.25 68.32
445.06 992.77 65.09
444.76 992.93 65.07
444.61 993.02 65.04
443.5 993.85 64.19
443.29 993.82 64.65
443.15 993.92 64.57
443.07 994.12 64.02
443.12 994.03 65.2
443.23 993.88 65.53
443.4 993.84 65.36
444.06 993.59 65.03
444.21 993.51 65.05
444.36 993.43 65.07
444.5 993.35 65.08
444.66 993.26 65.11
445.75 991.74 68.33
445.89 991.65 68.37
446.04 991.58 68.37
446.19 991.49 68.39
446.48 990.36 71.7
446.6 990.24 71.9
446.77 990.19 71.77
447.24 990.0 71.6
447.38 989.91 71.66
447.53 989.83 71.66
447.68 989.75 71.67
447.42 990.13 71.71
447.28 990.21 71.67
447.13 990.29 71.67
446.98 990.37 71.66
446.8 990.39 71.91
446.64 990.47 71.9
446.5 990.55 71.89
445.78 991.96 68.39
445.63 992.04 68.38
445.49 992.12 68.38
445.34 992.21 68.35
444.1 993.82 65.07
443.95 993.9 65.07
443.8 993.98 65.07
443.64 994.05 65.09
443.33 993.84 66.37
443.18 993.92 66.35
443.09 994.12 65.84
441.51 995.78 63.82
443.22 994.55 64.99
443.12 994.01 66.98
443.25 993.88 67.2
443.43 993.86 66.94
444.92 992.68 68.34
445.06 992.6 68.38
445.21 992.51 68.39
445.36 992.43 68.4
446.43 990.94 71.6
446.72 990.76 71.67
446.86 990.69 71.68
446.28 991.35 71.68
446.14 991.43 71.67
445.99 991.51 71.67
445.85 991.59 71.64
445.71 991.67 71.61
444.78 993.1 68.42
444.64 993.19 68.38
444.48 993.27 68.37
444.34 993.35 68.36
444.19 993.44 68.32
443.46 993.88 68.08
443.26 993.87 68.47
443.13 993.98 68.33
443.08 994.97 65.07
442.93 995.06 65.06
442.78 995.13 65.06
442.62 995.22 65.04
442.48 995.31 65.0
441.23 995.43 67.63
442.15 995.72 65.02
442.3 995.63 65.05
442.61 995.47 65.07
443.09 994.17 68.63
443.17 993.98 69.13
443.32 993.87 69.24
443.53 993.9 68.76
443.76 993.98 68.08
443.89 993.85 68.33
444.03 993.76 68.36
444.18 993.68 68.37
444.33 993.6 68.38
445.4 992.08 71.63
445.55 992.0 71.66
445.7 991.92 71.67
445.84 991.84 71.67
445.99 991.76 71.7
445.53 992.21 71.68
445.38 992.29 71.67
445.23 992.37 71.67
445.09 992.45 71.65
444.02 993.97 68.39
443.86 994.05 68.38
443.72 994.13 68.36
443.39 993.9 69.72
443.22 993.93 69.91
443.13 994.12 69.44
442.29 995.84 65.08
442.14 995.92 65.05
441.99 996.0 65.05
441.84 996.09 65.02
441.4 995.6 67.47
441.54 995.86 67.14
443.08 994.72 68.3
443.23 994.62 68.36
443.15 994.11 70.25
443.38 994.54 68.36
443.24 993.94 70.65
443.42 993.9 70.48
444.62 992.95 71.62
444.76 992.86 71.66
444.91 992.78 71.68
445.06 992.7 71.68
445.21 992.62 71.69
444.61 993.24 71.69
444.47 993.32 71.67
444.32 993.4 71.67
444.17 993.48 71.64
444.02 993.57 71.62
443.47 993.94 71.33
443.26 993.93 71.75
443.14 994.06 71.5
443.08 995.01 68.36
442.93 995.09 68.37
442.48 995.34 68.31
441.85 996.0 68.24
441.99 995.92 68.29
442.14 995.83 68.33
442.44 995.67 68.35
443.22 994.22 71.88
443.37 994.14 71.9
443.52 994.07 71.89
443.7 994.05 71.64
443.84 993.96 71.66
443.99 993.89 71.67
444.14 993.81 71.68
443.79 994.17 71.68
443.65 994.25 71.67
443.48 994.31 71.78
443.35 994.41 71.66
443.24 994.55 71.39
442.25 995.95 68.36
442.1 996.03 68.34
441.95 996.11 68.35
442.85 994.94 71.62
443.01 994.85 71.65
443.16 994.77 71.66
443.31 994.69 71.67
443.45 994.61 71.69
442.86 995.24 71.67
442.71 995.32 71.66
442.56 995.4 71.65
442.42 995.48 71.64
442.27 995.56 71.61
442.23 996.94 66.99
442.0 996.05 71.64
442.15 995.97 71.65
442.3 995.88 71.68
442.18 996.86 70.22
442.52 997.53 67.32
442.5 997.24 70.54
446.99 990.49 54.32
446.88 990.63 54.36
443.66 994.17 54.21
443.54 994.3 54.19
443.56 994.31 56.61
443.66 994.16 56.49
443.64 993.91 55.69
446.86 990.65 56.77
446.98 990.51 56.75
447.01 990.3 56.19
446.98 990.34 57.73
446.94 990.54 58.19
446.81 990.66 58.1
446.59 990.7 57.48
443.67 993.97 57.5
443.64 994.18 58.03
443.52 994.31 58.03
443.31 994.35 57.44
442.37 996.95 63.82
443.28 994.35 59.03
443.5 994.31 59.65
443.62 994.18 59.68
443.65 993.97 59.13
446.58 990.74 59.31
446.74 990.66 59.6
446.89 990.57 59.86
446.96 990.4 59.57
447.0 990.24 60.85
446.97 990.45 61.37
446.86 990.58 61.42
446.67 990.64 60.95
443.66 994.0 60.91
443.62 994.2 61.4
443.49 994.31 61.27
443.25 994.34 60.58
442.17 996.57 63.69
443.33 994.36 63.16
443.52 994.3 63.61
443.61 994.15 63.48
443.56 993.89 62.5
446.68 990.66 63.35
446.86 990.59 63.77
446.94 990.43 63.54
449.12 989.24 67.36
448.7 988.54 63.8
448.53 988.32 63.86
448.49 988.77 65.09
448.37 988.9 65.09
448.26 989.02 65.1
448.14 989.15 65.08
448.03 989.28 65.09
447.91 989.4 65.08
447.8 989.53 65.08
447.69 989.66 65.09
447.57 989.79 65.08
447.46 989.92 65.09
447.35 990.04 65.09
447.23 990.18 65.09
447.11 990.3 65.09
446.99 990.43 65.06
446.89 990.56 65.1
446.77 990.68 65.06
446.66 990.82 65.09
446.54 990.94 65.09
446.43 991.07 65.09
446.32 991.19 65.09
446.2 991.32 65.09
446.09 991.45 65.1
445.97 991.58 65.09
445.86 991.71 65.09
445.75 991.84 65.09
445.63 991.96 65.1
445.52 992.09 65.09
445.41 992.22 65.1
445.29 992.35 65.09
445.18 992.48 65.1
445.06 992.6 65.09
444.95 992.73 65.09
444.84 992.86 65.09
444.72 992.98 65.09
444.61 993.11 65.09
444.49 993.24 65.09
444.38 993.37 65.09
444.26 993.49 65.09
444.15 993.62 65.09
444.04 993.75 65.09
443.92 993.88 65.09
443.81 994.0 65.08
443.69 994.13 65.05
443.58 994.26 65.09
443.46 994.39 65.07
443.35 994.52 65.08
443.24 994.64 65.08
443.12 994.77 65.08
443.01 994.9 65.07
442.89 995.02 65.07
442.78 995.15 65.07
442.67 995.28 65.07
442.55 995.4 65.07
442.44 995.53 65.07
442.32 995.66 65.07
442.21 995.79 65.06
442.09 995.91 65.06
441.86 996.17 65.06
442.47 997.27 70.48
441.47 995.69 63.87
443.32 994.33 66.05
443.53 994.27 66.57
443.6 994.12 66.39
446.62 990.64 66.1
446.81 990.6 66.64
446.93 990.47 66.64
446.97 990.27 66.18
448.68 988.62 67.03
448.14 987.84 64.31
448.52 988.75 68.36
448.4 988.87 68.35
448.29 989.0 68.36
448.07 989.26 68.36
447.73 989.64 68.37
447.51 989.89 68.37
447.16 990.27 68.38
447.05 990.4 68.38
446.94 990.52 68.38
446.83 990.65 68.38
446.72 990.77 68.38
446.27 991.28 68.39
446.15 991.41 68.39
446.04 991.53 68.39
445.93 991.66 68.38
445.82 991.79 68.39
445.7 991.91 68.39
445.59 992.04 68.38
445.48 992.16 68.39
445.36 992.29 68.38
445.03 992.67 68.39
444.91 992.79 68.38
444.8 992.92 68.39
444.69 993.05 68.38
444.57 993.17 68.38
444.46 993.3 68.38
444.24 993.54 68.38
444.12 993.67 68.38
443.9 993.93 68.38
443.67 994.18 68.37
443.56 994.3 68.37
443.45 994.43 68.37
443.34 994.55 68.37
443.22 994.68 68.37
442.88 995.06 68.36
442.77 995.19 68.36
442.66 995.31 68.36
442.54 995.43 68.35
442.32 995.69 68.35
442.09 995.94 68.34
441.98 996.07 68.36
442.06 996.56 70.13
443.53 994.27 70.43
443.59 994.1 70.1
446.65 990.74 70.41
446.77 990.62 70.42
446.89 990.5 70.46
446.93 990.3 70.01
448.54 988.59 70.29
448.4 988.33 70.35
448.48 988.67 71.66
448.38 988.79 71.67
448.26 988.92 71.67
448.15 989.04 71.68
448.04 989.17 71.67
447.93 989.29 71.67
447.82 989.42 71.67
447.71 989.54 71.68
447.59 989.67 71.68
447.48 989.8 71.68
447.38 989.92 71.69
447.26 990.05 71.69
447.15 990.17 71.69
447.04 990.3 71.69
446.82 990.56 71.74
446.69 990.66 71.58
446.6 990.8 71.69
446.48 990.93 71.69
446.37 991.05 71.68
446.26 991.17 71.69
446.15 991.3 71.7
446.04 991.42 71.69
445.93 991.55 71.69
445.82 991.67 71.69
445.71 991.8 71.7
445.59 991.93 71.7
445.49 992.05 71.7
445.37 992.17 71.7
445.26 992.3 71.7
445.15 992.42 71.69
445.04 992.55 71.7
444.93 992.67 71.69
444.82 992.8 71.69
444.71 992.92 71.69
444.59 993.05 71.69
444.48 993.17 71.7
444.37 993.3 71.69
444.26 993.42 71.7
444.15 993.55 71.69
444.04 993.67 71.69
443.92 993.8 71.69
443.82 993.92 71.69
443.7 994.05 71.68
443.59 994.16 71.64
443.49 994.3 71.74
443.36 994.42 71.65
443.26 994.55 71.68
443.15 994.67 71.68
443.04 994.79 71.68
442.92 994.92 71.67
442.81 995.05 71.68
442.7 995.17 71.68
442.59 995.3 71.67
442.47 995.42 71.67
442.37 995.54 71.67
442.25 995.67 71.67
442.14 995.79 71.67
442.03 995.92 71.67
441.92 996.04 71.66
441.8 996.16 71.64
443.17 994.24 71.92
443.28 994.12 71.91
443.39 993.99 71.91
446.5 990.49 71.92
446.6 990.37 71.91
446.72 990.24 71.91
448.16 988.14 70.5
448.09 987.88 70.75
