26.53 858.48 37.94
26.54 858.38 38.3
26.59 858.29 38.58
26.68 858.21 38.73
26.78 858.12 38.91
26.8 858.18 39.27
26.64 858.26 39.25
26.57 858.35 39.03
26.51 858.44 38.78
26.54 858.54 38.33
26.38 858.62 38.29
26.66 858.76 37.26
26.6 858.84 39.26
26.62 858.75 39.59
26.57 858.64 40.09
26.56 858.55 40.49
26.55 858.45 40.9
26.6 858.36 41.16
26.66 858.27 41.4
26.83 858.19 41.42
26.82 858.19 42.33
26.67 858.27 42.29
26.6 858.36 42.06
26.56 858.45 41.78
26.56 858.55 41.39
26.58 858.65 40.96
26.64 858.75 40.47
26.72 858.86 39.88
26.78 858.76 42.92
26.67 858.65 43.54
26.63 858.55 44.0
26.62 858.45 44.41
26.64 858.36 44.72
26.71 858.27 44.96
26.86 858.2 44.98
26.85 858.2 45.64
26.72 858.28 45.57
26.65 858.36 45.35
26.63 858.46 45.02
26.64 858.55 44.63
26.69 858.65 44.14
26.78 858.76 43.56
26.76 858.72 46.09
26.67 858.61 46.67
26.65 858.52 47.1
26.64 858.42 47.47
26.69 858.34 47.73
26.9 858.17 47.99
28.26 857.03 50.05
28.17 857.3 50.03
28.02 857.38 49.98
27.87 857.46 49.94
26.89 858.18 48.87
26.76 858.26 48.81
26.69 858.34 48.59
26.64 858.43 48.34
26.65 858.53 47.95
26.68 858.62 47.52
26.77 858.73 46.95
26.92 858.83 49.57
26.92 858.73 49.94
26.79 858.63 50.57
26.72 858.53 51.08
26.72 858.43 51.47
26.75 858.35 51.74
26.82 858.26 51.96
26.95 858.19 52.03
27.49 857.97 51.89
27.63 857.89 51.95
27.77 857.82 51.99
27.99 857.21 53.99
28.27 857.05 54.08
28.06 857.32 54.03
27.94 857.39 53.97
27.8 857.47 53.92
27.57 858.07 51.96
27.42 858.15 51.93
26.93 858.19 52.65
27.35 858.23 51.74
26.81 858.27 52.57
26.74 858.35 52.36
26.71 858.44 52.09
26.72 858.53 51.71
26.81 858.72 50.78
27.01 858.84 49.98
26.86 858.91 49.96
26.78 859.0 49.79
26.63 859.22 51.93
26.77 859.14 51.98
26.84 858.69 53.59
26.79 858.6 54.05
26.89 858.52 54.18
27.06 858.44 54.18
27.32 858.38 53.97
27.09 858.65 54.09
26.88 858.81 53.85
26.83 858.89 53.61
26.48 859.49 51.91
27.08 858.66 36.72
27.16 858.56 37.77
27.21 858.48 38.82
27.22 858.5 40.32
27.14 858.65 40.55
27.07 858.8 40.79
26.96 858.91 40.81
26.92 858.88 40.84
27.04 858.77 40.83
27.12 858.62 40.61
27.19 858.47 40.37
27.17 858.43 40.39
27.11 858.58 40.68
27.02 858.72 40.83
26.91 858.85 40.92
26.72 858.81 40.96
26.9 858.74 41.29
27.07 858.66 41.55
27.15 858.53 41.36
27.14 858.3 40.63
26.76 858.01 38.63
27.13 858.39 41.97
27.11 858.59 42.56
27.02 858.72 42.69
26.84 858.78 42.36
26.43 858.67 40.8
26.73 858.74 42.1
26.49 858.56 40.84
26.96 858.72 42.7
27.09 858.61 42.77
27.14 858.45 42.41
27.13 858.35 42.28
27.13 858.55 42.92
27.03 858.69 43.05
26.84 858.74 42.66
26.86 858.74 43.54
27.05 858.67 43.9
27.15 858.55 43.8
27.15 858.34 43.14
27.13 858.45 44.41
27.08 858.63 44.83
26.96 858.73 44.81
26.76 858.79 44.38
26.82 858.74 44.53
27.02 858.69 44.95
27.12 858.56 44.84
27.13 858.36 44.24
27.14 858.31 44.28
27.14 858.51 44.93
27.06 858.65 45.11
26.88 858.72 44.81
26.81 858.73 45.27
27.01 858.68 45.72
27.13 858.56 45.69
27.14 858.38 45.13
27.11 858.48 46.24
27.06 858.64 46.59
26.91 858.73 46.44
26.8 858.73 46.4
27.0 858.69 46.88
27.11 858.56 46.8
27.12 858.37 46.23
27.14 858.35 46.42
27.13 858.54 46.99
27.02 858.66 47.08
26.83 858.71 46.68
26.97 858.67 47.39
27.1 858.57 47.45
27.14 858.4 47.03
27.12 858.4 48.23
27.1 858.58 48.77
26.99 858.7 48.79
26.93 858.85 49.11
26.77 858.73 48.23
26.73 859.29 49.9
26.61 859.4 49.92
26.5 859.51 49.95
26.51 859.38 49.98
26.63 859.27 49.97
26.74 859.16 49.96
26.85 859.05 49.95
26.95 858.93 49.9
26.9 858.68 48.92
27.06 858.61 49.2
27.13 858.47 48.94
27.27 858.42 49.54
27.13 858.31 48.77
27.14 858.51 49.45
27.1 858.69 49.89
27.0 858.81 49.96
26.77 859.03 49.98
26.65 859.13 49.98
26.83 858.69 49.67
27.02 858.64 50.1
27.12 858.53 50.05
27.22 858.4 49.91
27.45 858.18 49.95
27.57 858.07 49.93
27.68 857.96 49.91
27.79 857.85 49.9
27.9 857.74 49.89
28.36 857.01 50.06
28.24 857.12 50.05
28.12 857.22 50.04
27.88 857.44 49.98
27.12 858.43 50.88
27.08 858.61 51.33
26.95 858.7 51.24
26.96 858.9 51.92
26.63 859.24 51.99
26.88 858.85 51.97
26.99 858.74 51.95
27.1 858.64 51.97
27.21 858.52 51.93
27.31 858.4 51.81
28.15 857.06 50.08
28.27 856.95 50.09
27.52 858.15 51.9
27.41 858.27 51.93
27.29 858.38 51.95
27.18 858.49 51.95
27.08 858.61 52.01
26.88 858.67 52.05
27.06 858.61 52.41
27.14 858.47 52.23
27.24 858.35 52.14
27.43 858.11 51.95
27.55 858.0 51.95
27.66 857.89 51.94
27.77 857.78 51.91
27.88 857.67 51.89
28.35 857.0 52.06
28.23 857.1 52.05
28.12 857.21 52.03
28.0 857.31 52.01
27.11 858.4 52.81
27.09 858.58 53.36
26.98 858.69 53.39
26.96 858.88 53.93
26.86 858.98 53.96
26.74 859.09 53.97
26.63 859.2 53.97
26.52 859.31 53.98
27.07 858.58 54.13
27.27 858.34 53.95
27.38 858.23 53.94
27.49 858.12 53.92
27.6 858.01 53.9
27.71 857.9 53.88
28.32 856.77 52.08
27.73 857.78 53.92
27.63 857.89 53.94
27.4 858.11 53.95
27.28 858.22 53.96
27.16 858.31 53.87
27.09 858.46 54.17
26.98 858.57 54.18
26.85 858.67 54.08
26.79 858.64 54.09
26.92 858.54 54.18
27.03 858.43 54.18
27.13 858.31 54.1
27.45 857.97 53.95
27.57 857.86 53.95
27.68 857.75 53.95
27.79 857.64 53.93
28.02 857.43 53.94
28.29 856.82 54.09
