464.77 34.3 39.85
465.01 34.59 40.36
465.19 34.83 40.78
465.78 35.45 42.07
467.71 37.27 35.83
467.47 37.23 36.55
467.35 37.34 36.51
466.28 36.04 43.15
465.4 39.08 36.01
465.27 39.2 35.98
465.14 39.32 35.96
461.46 42.64 36.54
461.73 42.42 36.56
463.76 40.81 36.46
466.54 36.23 43.63
467.32 37.43 37.99
467.41 37.27 38.27
467.59 37.22 38.0
467.67 37.2 39.61
467.48 37.22 40.01
466.77 36.45 44.14
467.37 37.36 39.86
465.67 39.15 38.62
465.56 39.29 38.45
462.11 42.35 38.85
462.21 42.21 39.03
466.36 38.53 40.04
466.79 36.71 44.53
467.29 37.47 40.99
466.93 36.61 44.49
467.39 37.31 41.19
467.53 37.22 41.13
467.76 37.25 40.47
467.6 37.23 42.23
467.09 36.77 44.91
467.43 37.28 42.51
466.96 36.88 44.9
467.35 37.47 42.1
467.14 37.77 41.72
467.04 37.92 41.54
466.94 38.08 41.27
462.96 41.6 40.39
464.0 40.61 42.36
467.15 37.08 45.4
467.37 37.43 43.78
467.66 37.25 43.59
468.79 36.81 42.17
467.72 37.23 45.51
467.52 37.24 45.98
467.41 37.37 45.85
465.34 39.4 44.77
465.23 39.55 44.56
466.09 38.77 46.19
466.19 38.63 46.38
467.4 37.42 47.09
467.49 37.27 47.34
469.05 37.49 42.79
468.81 36.83 45.42
468.78 37.22 45.54
469.0 37.85 43.05
467.61 37.26 48.32
467.45 37.32 48.51
466.91 38.0 47.78
466.8 38.14 47.64
467.4 37.45 49.68
467.52 37.32 49.76
467.69 37.29 49.43
468.95 38.27 43.34
468.87 37.56 45.69
468.69 36.7 48.78
468.79 37.22 48.88
468.81 38.13 46.03
468.59 39.02 43.85
468.45 39.11 43.94
468.3 39.21 44.0
468.89 37.58 48.77
469.95 39.38 46.42
472.02 37.98 45.61
477.31 36.98 36.92
477.17 37.07 37.0
476.42 37.78 36.68
472.66 37.93 45.52
470.66 39.94 45.54
476.27 38.07 37.46
476.49 38.35 36.06
476.49 38.07 36.91
476.58 37.64 38.01
476.77 37.59 37.72
477.37 36.97 38.12
477.55 37.18 37.02
477.3 36.96 40.45
476.98 37.38 39.96
476.83 37.45 40.11
476.68 37.53 40.26
476.56 37.65 40.17
476.37 37.97 39.67
473.43 38.34 45.78
473.29 38.43 45.85
467.88 45.62 37.2
467.76 45.77 37.02
467.62 45.87 37.09
467.47 45.94 37.25
467.11 46.33 36.93
466.98 46.46 36.85
467.03 46.41 38.11
467.18 46.34 37.96
467.29 46.18 38.2
467.4 46.03 38.38
467.51 45.88 38.57
467.96 45.63 38.22
468.81 42.49 45.75
471.16 40.57 45.84
473.49 38.65 46.03
473.62 38.55 45.99
476.89 38.87 37.0
476.61 38.25 39.58
476.95 38.67 37.44
476.45 37.78 41.41
476.73 38.12 39.69
477.31 38.58 36.84
477.47 38.5 36.71
477.64 38.42 36.52
477.21 37.09 41.65
477.38 36.91 43.15
477.26 37.03 43.08
478.06 37.98 38.24
477.13 37.14 43.07
477.9 38.05 38.39
477.0 37.25 43.06
476.88 37.34 43.06
476.75 37.45 43.06
476.48 37.66 43.08
476.36 37.77 43.06
473.75 38.52 47.19
473.4 38.34 48.56
473.61 38.62 47.22
473.27 38.44 48.59
473.49 38.73 47.17
473.35 38.83 47.22
472.95 39.13 47.27
472.82 39.24 47.25
472.69 39.35 47.25
472.3 39.66 47.24
472.18 39.77 47.24
472.05 39.87 47.24
471.92 39.98 47.24
471.79 40.08 47.23
471.66 40.18 47.24
471.39 40.39 47.27
471.26 40.49 47.26
471.13 40.58 47.33
471.0 40.69 47.32
470.86 40.78 47.37
470.73 40.89 47.37
470.59 40.99 47.4
470.47 41.09 47.4
470.34 41.19 47.4
470.21 41.3 47.41
470.07 41.4 47.43
469.14 42.7 45.75
468.38 46.02 37.46
468.5 46.22 36.54
467.98 45.67 39.53
467.71 45.89 39.5
467.56 45.96 39.64
467.42 46.04 39.78
467.45 46.79 37.39
467.57 47.0 36.45
467.04 46.41 39.58
467.0 46.47 40.63
467.13 46.36 40.65
467.38 46.81 38.61
467.52 47.05 37.57
467.25 46.23 40.74
467.86 47.3 35.96
467.36 46.08 40.92
467.47 45.93 41.1
467.89 45.63 40.98
468.2 45.82 39.65
468.33 46.04 38.66
468.46 46.27 37.62
468.74 46.42 36.49
468.77 42.88 47.26
469.05 42.69 47.16
469.17 42.57 47.23
469.43 42.36 47.24
469.55 42.25 47.26
469.68 42.14 47.28
471.06 40.62 48.59
471.19 40.51 48.58
471.39 40.8 47.21
473.61 39.02 47.22
473.53 38.64 48.6
473.74 38.92 47.21
473.87 38.81 47.22
476.29 38.09 43.5
476.43 37.72 44.29
476.69 37.51 44.3
477.45 38.43 39.59
476.82 37.4 44.3
477.56 38.28 39.79
476.95 37.3 44.3
477.08 37.19 44.31
477.21 37.07 44.36
477.33 36.95 44.42
477.46 36.96 45.93
477.73 37.28 44.27
477.26 36.98 46.33
477.16 37.1 46.2
477.86 38.21 41.1
477.7 38.28 41.27
477.55 38.36 41.4
476.53 37.65 46.08
477.25 38.53 41.64
476.43 37.8 45.9
476.69 38.12 44.25
474.26 39.11 47.19
473.92 38.93 48.61
474.13 39.21 47.22
474.0 39.31 47.22
473.87 39.42 47.21
471.79 41.09 47.21
471.46 40.91 48.59
469.65 43.3 45.75
469.13 42.79 48.57
469.32 43.09 47.21
468.68 46.25 39.11
468.02 45.47 43.12
468.29 45.93 41.05
468.42 46.15 40.03
467.9 45.59 43.05
467.63 45.81 43.03
467.37 46.02 43.04
467.24 46.13 43.03
467.11 46.23 43.04
466.98 46.34 43.02
466.93 46.42 44.25
467.06 46.31 44.26
467.19 46.21 44.26
467.68 47.08 40.38
467.32 46.1 44.26
467.45 45.99 44.28
467.58 45.87 44.32
468.18 46.93 39.62
467.69 45.75 44.43
467.98 45.56 44.3
468.11 45.8 43.26
469.37 43.05 48.58
469.56 43.35 47.2
469.89 43.59 45.65
471.7 41.18 48.6
472.03 41.37 47.21
472.14 41.54 46.4
474.24 39.59 47.23
474.15 39.21 48.61
474.37 39.49 47.21
474.5 39.39 47.2
475.52 38.53 47.33
475.65 38.41 47.37
475.77 38.31 47.4
475.9 38.2 47.39
476.04 38.11 47.34
476.17 38.0 47.35
476.3 37.9 47.35
476.58 38.24 45.6
476.42 37.78 47.41
476.53 37.66 47.53
477.28 38.57 42.88
476.65 37.53 47.62
476.85 37.26 47.95
476.96 37.13 48.09
477.27 36.98 47.77
478.06 37.91 43.01
477.88 38.03 44.31
476.66 37.59 48.65
476.55 37.72 48.51
476.88 38.12 46.46
477.06 38.34 45.37
477.28 38.61 44.0
476.41 37.82 48.55
476.29 37.92 48.53
476.16 38.03 48.53
476.36 38.28 47.26
476.03 38.13 48.53
475.91 38.25 48.48
475.78 38.35 48.49
475.95 38.57 47.37
475.53 38.57 48.44
475.7 38.78 47.36
475.39 38.67 48.47
475.56 38.89 47.37
475.32 38.84 48.13
474.79 39.24 48.18
474.91 39.41 47.38
474.55 39.48 48.04
474.34 39.47 48.61
474.54 39.74 47.26
474.4 39.83 47.36
474.2 39.84 47.83
474.15 40.04 47.32
473.9 40.0 48.05
473.8 40.15 47.84
473.7 40.29 47.66
473.48 40.54 47.43
473.36 40.67 47.34
473.24 40.77 47.32
473.1 40.88 47.33
472.97 40.99 47.33
472.84 41.09 47.32
472.71 41.19 47.34
472.58 41.3 47.33
472.45 41.4 47.34
472.3 41.48 47.46
472.01 41.34 48.61
472.2 41.63 47.25
471.87 41.45 48.62
472.09 41.76 47.14
469.91 43.59 46.87
469.55 43.33 48.59
469.74 43.63 47.2
468.38 45.89 43.61
468.64 46.34 41.62
467.85 45.63 45.71
468.04 45.95 44.3
468.49 46.74 40.76
467.91 46.06 44.25
467.94 46.44 43.03
467.33 46.06 45.7
467.22 46.2 45.54
467.73 47.1 41.54
467.83 47.27 40.76
467.1 46.34 45.39
467.4 46.87 43.03
467.12 46.7 44.23
467.01 46.41 46.6
467.37 46.7 44.85
467.57 47.07 43.22
467.22 46.11 47.02
467.88 47.29 41.79
467.37 46.03 46.9
468.01 47.16 41.89
467.51 45.96 46.78
467.83 46.52 44.26
468.11 47.01 42.08
467.58 45.74 47.29
468.22 46.86 42.28
467.71 45.63 47.3
467.85 45.54 47.24
468.54 46.07 43.91
468.65 46.26 43.04
468.49 45.0 47.32
468.61 44.88 47.37
468.73 44.77 47.42
468.88 44.69 47.31
469.01 44.58 47.32
469.14 44.48 47.32
469.27 44.36 47.34
469.4 44.26 47.34
469.52 44.14 47.43
469.66 44.05 47.36
469.8 43.96 47.31
469.75 43.57 48.6
469.93 43.84 47.33
470.32 43.53 47.32
470.49 43.19 47.96
470.64 43.11 47.84
471.17 42.7 47.79
471.26 42.55 48.02
471.46 42.25 48.47
471.61 42.17 48.33
471.75 42.39 47.31
471.72 42.04 48.45
471.84 41.93 48.48
471.98 41.82 48.49
472.1 41.71 48.53
472.23 41.61 48.53
472.49 41.41 48.51
472.63 41.3 48.51
472.75 41.19 48.53
472.88 41.09 48.53
473.01 40.98 48.52
473.14 40.88 48.53
473.33 41.14 47.29
473.27 40.77 48.54
473.4 40.67 48.53
473.53 40.57 48.53
473.66 40.47 48.52
473.92 40.25 48.56
474.23 40.4 47.33
474.31 39.94 48.53
474.5 40.19 47.31
474.56 39.72 48.61
474.77 40.0 47.22
474.89 39.88 47.33
475.02 39.78 47.3
474.96 39.43 48.52
475.08 39.32 48.55
475.22 39.21 48.55
475.35 39.11 48.53
475.66 39.25 47.33
475.8 39.15 47.32
475.74 38.81 48.52
476.12 38.49 48.54
476.45 38.63 47.31
476.38 38.28 48.55
476.59 38.53 47.28
476.86 38.08 48.0
477.05 38.31 46.8
477.27 38.58 45.46
477.29 37.55 48.54
478.06 37.94 45.48
477.68 37.25 48.53
478.09 37.87 47.34
477.96 37.97 47.34
477.29 37.68 49.87
477.17 37.8 49.81
477.38 38.04 48.54
477.34 38.52 47.18
476.99 38.36 48.55
477.18 38.59 47.35
477.06 38.7 47.32
476.8 38.92 47.3
476.48 38.78 48.52
476.68 39.02 47.29
476.54 39.12 47.32
476.41 39.23 47.32
475.95 39.2 48.53
475.82 39.3 48.53
475.77 39.77 47.23
475.66 39.9 47.12
475.53 40.01 47.1
475.41 40.13 47.02
475.05 39.93 48.52
475.41 40.4 46.19
474.9 40.01 48.61
475.12 40.29 47.23
474.66 40.24 48.53
474.85 40.49 47.3
474.27 40.56 48.51
474.32 40.9 47.31
473.93 41.22 47.3
473.62 41.07 48.54
472.85 41.7 48.51
473.03 41.95 47.3
472.45 41.99 48.6
472.2 42.22 48.51
472.38 42.48 47.29
471.59 43.11 47.3
471.29 42.95 48.52
470.9 43.26 48.51
470.94 43.63 47.32
470.38 43.68 48.52
470.55 43.95 47.29
470.44 44.07 47.21
470.11 43.87 48.59
470.16 44.26 47.29
470.03 44.36 47.33
469.47 44.41 48.51
469.51 44.78 47.31
469.38 44.89 47.29
469.25 44.99 47.32
468.82 44.93 48.53
468.7 45.04 48.51
468.56 45.14 48.53
468.72 45.41 47.29
468.44 45.24 48.52
468.3 45.35 48.53
468.47 45.62 47.3
468.17 45.45 48.52
468.73 46.4 44.25
468.05 45.55 48.52
467.92 45.66 48.54
467.77 45.75 48.61
468.33 46.71 44.31
467.65 45.87 48.54
467.81 46.15 47.3
468.27 46.94 43.75
467.53 45.97 48.54
468.13 47.02 43.85
467.4 46.07 48.53
467.27 46.18 48.53
467.85 47.21 43.97
467.13 46.29 48.54
467.01 46.39 48.53
466.88 46.51 48.48
467.21 46.71 48.53
467.42 46.76 47.87
467.56 46.99 46.83
467.65 47.16 46.09
467.41 46.41 48.96
467.87 47.21 45.4
467.6 46.4 48.53
467.89 46.57 47.3
468.35 46.71 45.73
468.5 46.64 45.57
468.54 46.05 47.31
468.75 46.4 45.72
468.51 45.67 48.54
468.67 45.95 47.29
468.64 45.57 48.51
468.8 45.84 47.3
468.77 45.47 48.51
468.93 45.74 47.31
469.06 45.64 47.3
469.28 45.05 48.55
469.45 45.33 47.29
469.42 44.95 48.51
469.7 45.11 47.34
469.84 45.01 47.31
470.23 44.69 47.31
470.2 44.33 48.52
470.31 44.2 48.62
470.63 44.39 47.26
470.78 44.63 46.16
470.59 44.01 48.53
470.92 44.53 46.13
470.88 44.18 47.29
470.98 43.71 48.5
471.31 43.92 47.05
471.43 43.8 47.1
471.55 43.68 47.17
471.67 43.56 47.26
471.83 43.49 47.08
472.08 43.28 47.11
472.2 43.16 47.17
472.32 43.03 47.28
472.27 42.67 48.52
472.45 42.93 47.28
472.58 42.82 47.3
472.71 42.72 47.29
472.84 42.61 47.31
472.78 42.23 48.62
472.98 42.51 47.28
473.1 42.4 47.31
473.36 42.19 47.32
473.31 41.84 48.52
473.48 42.09 47.33
473.62 41.98 47.33
473.7 41.52 48.55
473.87 41.75 47.41
474.0 41.66 47.35
474.13 41.56 47.37
474.26 41.45 47.38
474.39 41.34 47.39
474.52 41.24 47.39
474.73 40.96 47.74
474.74 40.7 48.51
474.88 40.88 47.6
474.92 40.66 48.16
475.05 40.57 48.13
475.12 40.37 48.59
475.45 40.54 47.24
475.47 40.29 47.95
475.58 40.16 48.09
475.65 39.98 48.46
475.77 39.87 48.52
475.9 39.76 48.52
476.05 39.68 48.39
476.16 39.55 48.52
476.42 39.34 48.53
476.55 39.24 48.54
476.68 39.14 48.54
476.81 39.03 48.54
476.93 38.93 48.55
477.06 38.82 48.55
477.19 38.72 48.55
477.32 38.61 48.56
477.45 38.51 48.56
477.58 38.41 48.54
477.71 38.31 48.55
477.84 38.2 48.55
477.97 38.09 48.55
478.23 37.89 48.55
477.33 37.76 52.58
473.6 42.07 48.55
473.48 42.18 48.54
473.34 42.28 48.54
473.21 42.39 48.53
472.95 42.6 48.54
472.83 42.7 48.53
472.18 43.22 48.52
472.05 43.33 48.51
471.93 43.44 48.47
471.82 43.57 48.34
471.66 43.64 48.51
471.46 43.94 48.09
471.36 44.09 47.88
471.26 44.24 47.67
471.02 44.16 48.51
470.89 44.27 48.49
470.93 44.64 47.25
470.61 44.45 48.61
470.78 44.72 47.4
470.58 44.7 47.94
470.47 44.84 47.81
470.24 44.78 48.52
470.36 44.98 47.63
470.26 45.14 47.39
470.13 45.23 47.43
469.85 45.09 48.54
470.01 45.34 47.38
469.88 45.46 47.34
469.75 45.56 47.35
469.46 45.41 48.5
469.61 45.66 47.37
469.49 45.77 47.35
469.36 45.88 47.32
469.07 45.72 48.52
469.23 45.99 47.31
469.11 46.09 47.3
468.81 45.92 48.55
468.97 46.2 47.3
468.69 46.03 48.51
468.84 46.3 47.3
468.56 46.13 48.53
468.72 46.41 47.3
468.49 46.67 47.04
467.91 46.34 49.48
468.26 46.94 46.77
467.52 46.97 48.53
467.66 47.23 47.37
467.9 46.42 50.39
468.21 46.96 47.99
468.35 46.87 47.89
468.53 46.52 48.54
468.65 46.73 47.61
468.67 46.45 48.42
468.79 46.31 48.53
469.05 46.11 48.51
469.18 46.0 48.52
469.31 45.9 48.52
469.44 45.79 48.53
469.7 45.59 48.53
469.83 45.48 48.52
469.96 45.38 48.53
470.09 45.27 48.53
470.22 45.17 48.51
470.34 45.06 48.56
470.48 44.96 48.53
470.73 44.74 48.62
467.88 46.4 52.48
461.62 42.82 37.95
461.62 42.3 36.54
461.74 42.35 36.31
461.87 42.54 38.42
467.96 47.28 36.75
467.7 47.11 37.07
467.58 47.02 37.23
467.45 46.94 37.37
467.32 46.84 37.5
467.15 46.5 36.91
467.02 46.42 37.09
462.34 42.12 39.26
467.0 46.47 38.02
467.12 46.55 37.82
467.26 46.66 37.75
467.38 46.74 37.57
467.51 46.87 37.54
467.69 47.19 38.1
467.81 47.29 38.0
467.92 47.25 37.46
468.0 47.15 36.75
468.18 46.97 37.17
468.03 47.29 38.99
467.91 47.27 39.35
467.79 47.2 39.55
467.66 47.09 39.62
467.24 46.62 39.45
467.09 46.45 39.36
462.56 41.95 39.6
467.27 46.71 40.17
467.39 46.79 40.01
467.26 46.16 38.13
467.52 46.9 39.94
467.81 47.27 40.23
467.92 47.27 39.83
468.01 47.2 39.21
468.28 46.95 37.21
468.75 46.38 36.51
468.65 46.42 37.05
468.29 46.79 39.84
468.07 45.74 36.67
467.94 45.65 36.84
468.02 47.08 41.94
467.97 47.31 43.05
467.85 47.26 43.32
467.71 47.13 43.33
467.59 47.05 43.48
467.46 46.95 43.62
467.34 46.87 43.76
467.15 46.49 43.04
467.02 46.37 43.1
462.96 41.58 40.34
463.04 41.51 40.51
466.96 46.43 44.28
467.09 46.55 44.25
467.22 46.68 44.24
467.36 46.82 44.26
467.5 46.96 44.27
467.63 47.1 44.3
467.77 47.24 44.34
467.9 47.36 44.26
468.55 46.36 38.0
468.69 46.51 38.07
468.76 46.51 39.79
468.48 46.21 39.7
468.35 46.12 39.85
468.39 46.82 42.38
468.3 46.9 43.04
468.04 45.67 39.32
468.22 47.05 43.88
467.92 45.6 39.52
468.13 47.11 44.46
467.89 46.49 43.03
467.95 47.25 45.71
467.84 46.77 44.26
467.63 45.79 41.35
467.85 47.27 46.17
467.57 45.97 42.29
467.7 47.1 46.07
467.38 46.1 43.47
467.46 46.95 46.42
467.14 46.45 45.75
467.03 46.42 46.06
463.79 40.66 36.46
463.32 41.28 40.99
463.88 40.64 36.45
466.9 46.51 47.36
467.02 46.62 47.29
467.08 46.41 46.27
467.26 46.73 46.81
467.19 46.41 45.86
467.37 46.78 46.57
467.5 46.88 46.47
467.69 47.31 47.36
467.42 46.03 43.57
467.82 47.42 47.31
467.89 47.27 46.47
467.91 46.39 43.04
468.16 47.05 44.63
468.26 47.06 44.25
467.96 45.61 39.9
468.12 45.86 40.23
468.44 46.91 42.99
468.37 46.03 39.94
468.51 46.17 39.95
468.69 46.54 40.68
468.79 46.51 40.16
468.9 46.43 43.06
468.71 46.56 44.27
468.64 46.71 45.11
468.49 46.02 43.04
468.53 46.73 45.58
468.35 45.88 43.05
468.25 45.89 43.46
468.35 46.88 46.86
468.1 45.7 43.32
467.96 47.01 48.8
467.85 46.5 47.28
467.62 45.92 45.98
467.42 45.95 46.86
467.29 46.31 48.72
467.14 46.12 48.55
463.73 40.92 41.74
463.73 40.78 41.9
464.36 39.98 36.5
467.33 46.09 48.51
467.5 46.4 49.03
467.41 46.0 47.85
467.59 46.37 48.53
467.5 45.95 47.31
467.59 45.86 46.65
467.9 46.81 49.07
467.67 45.8 46.08
467.9 46.34 47.31
467.84 45.62 44.75
468.25 47.01 48.51
467.95 45.61 44.33
468.35 46.97 47.99
468.08 45.72 44.25
468.42 46.83 47.19
468.21 45.85 44.27
468.35 46.0 44.3
468.56 46.53 45.51
468.5 46.21 44.56
468.68 46.57 45.21
468.75 46.4 44.31
468.88 46.51 44.26
468.75 46.58 47.24
468.3 45.96 46.59
468.3 46.48 48.53
468.17 45.89 46.78
468.0 45.61 46.37
468.09 46.48 49.32
467.9 45.6 46.72
467.98 46.43 49.59
467.81 45.67 47.32
467.63 45.8 48.51
464.74 39.77 36.48
464.09 40.57 42.44
464.8 39.7 36.47
467.65 45.7 48.54
467.92 46.44 50.34
467.76 45.76 48.35
467.82 45.55 47.33
467.94 45.62 47.17
468.22 46.44 49.19
468.06 45.72 47.08
468.34 46.51 49.02
468.18 45.81 46.96
468.44 46.5 48.61
468.56 46.6 48.53
468.62 46.38 47.47
468.75 46.5 47.46
468.79 45.66 47.32
468.48 45.67 48.51
468.39 45.25 47.3
468.3 45.34 47.94
468.21 45.4 48.51
465.29 39.19 35.94
465.2 39.24 36.49
465.24 39.47 37.91
465.26 39.12 36.52
465.35 39.08 35.99
468.23 45.23 48.54
468.32 45.18 48.0
468.41 45.09 47.35
468.63 45.62 48.53
468.76 45.74 48.51
468.66 45.33 47.28
469.06 45.72 47.29
469.56 45.66 47.43
469.41 45.49 47.3
469.37 45.76 48.52
469.24 45.64 48.57
468.88 44.96 47.3
468.75 44.84 47.34
468.7 45.1 48.52
468.56 44.96 48.52
465.55 39.31 38.34
464.76 39.94 43.7
465.59 39.26 38.4
468.67 44.95 48.51
468.73 44.75 47.52
468.84 44.81 47.3
468.97 44.94 47.32
469.46 45.74 48.53
469.64 45.61 47.38
470.08 45.27 47.47
470.0 45.35 48.1
469.94 45.09 47.33
469.89 45.36 48.53
469.62 45.09 48.52
469.49 44.96 48.52
469.4 44.54 47.3
469.16 44.43 47.73
469.08 44.56 48.52
465.87 38.92 39.16
468.26 43.14 46.95
469.18 44.46 48.52
469.44 44.71 48.51
469.35 44.3 47.31
469.48 44.43 47.28
469.71 44.98 48.54
469.97 45.23 48.53
470.08 45.27 48.26
470.15 45.09 47.34
470.96 44.78 45.84
470.84 44.73 46.1
470.73 44.71 46.41
470.52 44.75 47.32
470.45 44.89 48.16
470.21 44.75 48.52
470.12 44.34 47.3
469.88 43.77 46.01
469.61 43.99 47.85
469.53 44.09 48.54
469.32 43.15 45.75
469.06 42.91 45.83
468.92 42.81 45.94
466.22 38.56 39.89
465.58 39.24 45.15
466.32 38.58 39.89
468.28 42.04 45.76
468.66 42.8 47.26
468.67 42.4 45.7
468.81 42.57 45.81
468.97 42.82 46.17
469.09 42.9 45.99
469.2 42.94 45.75
469.34 43.08 45.75
469.66 44.05 48.24
469.48 43.2 45.75
469.73 43.88 47.36
469.6 43.33 45.74
469.85 43.94 47.17
469.74 43.46 45.75
469.91 43.77 46.3
470.25 44.37 47.3
470.47 44.9 48.5
470.56 44.85 47.96
470.64 44.7 47.13
470.74 44.71 46.78
470.86 44.74 46.45
470.96 44.72 46.02
471.05 44.37 47.49
470.94 44.39 47.95
470.85 44.45 48.54
470.63 43.91 47.31
470.49 43.77 47.29
470.35 43.62 47.24
470.22 43.52 47.33
470.17 43.78 48.52
470.04 43.66 48.54
469.13 42.44 47.29
466.66 38.27 40.66
465.98 38.83 45.98
466.73 38.17 40.77
467.43 37.62 36.15
467.54 37.66 35.87
469.14 42.29 47.43
469.26 42.34 47.22
470.15 43.56 48.52
470.25 43.52 48.03
470.42 43.81 48.51
470.33 43.41 47.32
470.55 43.94 48.52
470.44 43.46 47.11
470.68 44.07 48.53
470.82 44.2 48.54
470.95 44.33 48.54
471.07 44.38 48.31
471.13 44.19 47.35
471.65 43.84 47.31
471.58 43.99 48.16
471.52 43.71 47.32
470.72 43.02 47.64
470.65 43.18 48.51
469.73 41.95 47.23
469.62 41.89 47.44
467.83 37.47 37.33
467.74 37.58 38.05
467.66 37.64 38.61
467.54 37.64 39.0
467.42 37.57 39.21
467.29 37.5 39.39
467.06 37.85 41.58
466.36 38.46 46.76
467.1 37.83 41.67
467.34 37.52 39.65
467.46 37.6 39.53
467.57 37.63 39.23
467.68 37.63 38.85
467.76 37.56 38.27
467.84 37.45 37.56
469.71 41.88 47.42
469.82 41.93 47.21
470.71 43.14 48.51
470.77 42.94 47.52
470.98 43.4 48.52
470.88 42.99 47.29
471.61 43.94 48.22
471.55 43.65 47.34
471.68 43.77 47.33
472.1 43.38 47.32
472.01 43.47 47.97
471.91 43.52 48.53
471.69 42.97 47.28
471.55 42.84 47.29
471.4 42.63 47.06
471.18 42.62 47.82
471.1 42.73 48.51
470.19 41.5 47.23
468.07 38.4 43.27
467.84 37.42 40.48
467.75 37.53 41.18
467.67 37.6 41.76
467.56 37.61 42.18
464.86 34.42 40.05
467.36 37.49 43.07
467.48 37.58 42.95
467.58 37.6 42.64
467.68 37.58 42.21
467.76 37.49 41.58
467.84 37.37 40.87
470.23 41.39 47.27
470.36 41.48 47.15
471.13 42.59 48.54
471.22 42.55 48.03
471.3 42.44 47.34
471.53 42.97 48.54
471.56 42.68 47.3
472.05 43.47 48.51
472.13 43.33 47.67
472.24 43.34 47.33
472.61 42.9 47.36
472.42 43.03 48.53
472.29 42.89 48.52
472.2 42.48 47.3
472.07 42.37 47.35
471.91 42.15 47.07
471.61 42.24 48.51
470.69 41.02 47.25
468.25 37.47 42.79
468.12 37.36 42.84
467.81 37.39 44.07
467.74 37.54 44.88
467.64 37.57 45.34
467.53 37.57 45.75
467.41 37.49 45.9
467.05 36.88 44.91
466.87 36.57 44.39
467.07 37.79 48.23
467.17 37.82 48.24
466.99 36.74 44.83
467.16 36.99 45.19
467.38 37.5 46.26
467.49 37.55 46.06
467.6 37.58 45.77
467.69 37.54 45.32
467.78 37.47 44.74
468.27 37.43 42.81
468.4 37.55 42.79
470.64 40.95 47.44
470.76 41.01 47.23
471.65 42.2 48.52
471.83 42.05 47.32
471.94 42.09 47.07
472.31 42.84 48.52
472.22 42.43 47.32
472.45 42.97 48.53
472.64 42.85 47.41
473.2 42.65 47.22
473.07 42.53 47.26
472.93 42.41 47.31
472.65 42.12 47.22
472.51 41.98 47.22
472.38 41.85 47.21
472.24 41.73 47.24
472.2 42.03 48.51
472.1 41.59 47.22
472.07 41.9 48.51
471.97 41.46 47.21
471.83 41.32 47.21
471.7 41.19 47.2
471.39 40.79 46.79
471.27 40.73 47.01
471.15 40.68 47.24
471.03 40.6 47.4
470.48 39.6 45.64
470.35 39.51 45.77
469.87 39.31 46.72
469.76 39.26 46.95
469.13 37.53 42.74
468.99 37.41 42.78
467.75 37.48 47.52
467.66 37.55 48.09
467.56 37.56 48.5
467.45 37.53 48.78
467.47 37.5 49.09
467.58 37.55 48.89
467.67 37.52 48.48
467.75 37.45 47.91
469.0 37.21 42.52
471.13 40.53 47.31
471.26 40.62 47.23
471.39 40.75 47.22
471.52 40.87 47.22
471.66 41.01 47.22
471.79 41.13 47.22
471.92 41.26 47.23
472.15 41.83 48.52
472.06 41.39 47.23
472.21 41.64 47.59
472.32 41.65 47.25
472.45 41.77 47.22
472.59 41.9 47.24
472.73 42.03 47.24
472.95 42.59 48.54
473.05 42.54 47.98
473.66 42.08 47.39
473.47 42.19 48.5
473.06 41.79 48.49
472.97 41.4 47.32
472.7 41.15 47.37
472.63 41.33 48.28
471.72 40.17 47.22
471.6 40.12 47.43
468.82 36.93 45.45
468.79 36.8 45.42
471.61 40.03 47.45
471.72 40.08 47.25
472.61 41.28 48.52
472.71 41.26 48.09
472.79 41.12 47.33
472.91 41.21 47.2
473.14 41.77 48.5
473.41 42.04 48.55
473.54 42.15 48.49
473.6 41.91 47.41
474.03 41.56 47.46
473.96 41.77 48.48
473.74 41.24 47.28
473.69 41.52 48.53
473.32 40.82 47.2
473.19 40.74 47.36
473.12 40.89 48.21
473.01 40.88 48.55
472.22 39.77 47.21
472.1 39.71 47.41
468.79 36.93 48.84
468.76 36.7 48.78
472.2 39.58 47.35
472.33 39.67 47.22
473.22 40.86 48.5
473.29 40.7 47.64
473.4 40.7 47.29
473.62 41.25 48.54
474.02 41.63 48.51
474.12 41.58 47.99
474.2 41.48 47.33
474.67 40.94 47.32
474.6 41.12 48.23
474.49 41.09 48.54
474.26 40.55 47.32
473.97 40.2 47.06
473.94 40.56 48.5
473.85 40.16 47.32
473.74 40.18 47.79
473.67 40.31 48.53
472.74 39.09 47.28
472.79 39.05 47.4
472.91 39.11 47.22
473.8 40.31 48.51
474.07 40.56 48.51
473.98 40.15 47.29
474.24 40.41 47.33
474.6 41.07 48.52
474.78 40.92 47.33
475.36 40.63 47.0
475.23 40.55 47.16
475.11 40.47 47.3
475.05 40.74 48.48
474.92 40.62 48.52
474.78 40.49 48.51
474.6 39.62 45.94
474.49 39.64 46.39
474.42 39.81 47.29
474.31 39.82 47.69
474.22 39.95 48.46
474.13 39.52 47.21
473.99 39.39 47.2
473.85 39.26 47.2
473.72 39.13 47.2
473.64 38.74 46.05
473.58 39.0 47.2
473.48 38.55 45.89
473.44 38.86 47.21
473.3 38.74 47.22
473.18 38.67 47.4
473.29 38.6 47.33
473.42 38.68 47.21
473.53 38.7 46.91
473.64 38.71 46.57
473.95 39.18 47.19
474.19 39.77 48.55
474.09 39.32 47.21
474.32 39.88 48.5
474.22 39.44 47.21
474.46 40.02 48.53
474.37 39.61 47.33
474.59 40.14 48.54
474.49 39.7 47.24
474.72 40.27 48.54
474.63 39.83 47.23
474.85 40.4 48.54
474.76 39.95 47.22
474.99 40.52 48.56
474.89 40.07 47.21
475.16 40.34 47.25
475.3 40.47 47.25
475.43 40.58 47.22
477.33 38.63 36.69
477.2 38.58 36.94
477.05 38.38 36.72
477.0 38.72 38.15
476.92 38.31 36.94
476.78 38.17 36.91
476.63 38.01 36.83
476.57 38.3 38.1
476.49 37.89 36.86
476.4 38.03 37.7
475.8 40.1 47.42
475.66 39.93 47.33
475.6 40.17 48.4
475.48 40.11 48.6
475.1 39.37 47.19
475.06 39.69 48.53
474.97 39.29 47.33
474.85 39.23 47.56
474.76 39.31 48.17
473.73 38.15 47.42
474.73 39.29 48.55
474.84 39.31 48.23
475.12 39.66 48.52
475.04 39.25 47.33
475.15 39.27 47.01
475.65 40.12 48.42
475.71 39.89 47.34
475.84 40.02 47.36
476.42 38.02 37.94
476.59 38.29 38.37
476.49 37.79 36.86
476.63 37.88 36.74
476.57 37.59 35.88
477.02 38.72 38.46
476.94 38.32 37.27
477.07 38.41 37.15
477.22 38.56 37.21
477.33 38.6 36.94
477.44 38.63 39.24
477.32 38.62 39.64
477.18 38.48 39.58
477.05 38.38 39.7
477.01 38.76 41.24
476.91 38.27 39.75
476.76 38.11 39.66
476.57 38.29 41.01
476.47 37.83 39.65
476.41 38.07 40.76
476.17 39.62 47.32
476.09 39.76 48.14
475.98 39.77 48.53
475.89 39.35 47.29
475.84 39.63 48.52
475.75 39.22 47.3
475.6 39.04 47.15
475.48 38.98 47.36
475.29 39.12 48.53
475.23 38.85 47.75
475.15 38.98 48.52
475.27 38.93 48.49
475.41 39.08 48.55
475.55 39.2 48.54
475.46 38.79 47.31
475.59 38.91 47.3
475.81 39.45 48.52
475.72 39.04 47.31
475.86 39.17 47.33
476.08 39.7 48.54
476.17 39.63 47.96
476.26 39.54 47.33
476.4 38.06 41.38
476.59 37.94 40.26
476.72 38.04 40.17
476.98 38.75 41.9
476.85 38.12 40.02
476.99 38.26 40.07
477.16 38.57 40.6
477.29 38.62 40.37
477.37 38.5 39.63
477.49 38.47 39.13
477.66 38.19 37.48
478.19 37.84 38.11
478.06 37.77 38.31
477.92 37.65 38.35
477.32 38.71 44.29
477.19 38.58 44.3
476.99 38.75 45.6
476.9 38.31 44.28
476.9 38.81 46.16
476.75 38.11 44.07
476.8 38.89 46.78
476.61 38.0 44.12
476.64 39.21 48.5
476.28 38.56 47.33
476.13 38.36 47.13
476.01 38.3 47.33
475.87 38.19 47.41
475.81 38.45 48.54
475.81 38.32 48.55
475.94 38.44 48.54
476.13 38.3 47.37
476.24 38.29 46.99
476.48 38.94 48.53
476.39 38.53 47.33
476.62 39.07 48.56
476.53 38.65 47.33
476.31 37.62 44.26
476.74 39.16 48.46
476.55 38.25 45.76
476.45 37.77 44.33
476.8 38.92 47.37
476.58 37.89 44.31
476.92 39.01 47.27
476.72 38.0 44.29
476.98 38.75 46.12
476.86 38.14 44.3
477.01 38.36 44.57
477.14 38.47 44.55
476.91 37.34 41.16
477.28 38.59 44.5
477.4 38.64 44.29
477.2 37.06 39.18
477.55 37.17 38.34
477.97 37.58 38.4
478.14 37.85 38.85
478.18 37.87 41.61
477.73 37.33 41.19
477.33 37.02 41.42
477.51 38.48 46.19
477.45 38.7 47.21
477.32 38.62 47.36
477.17 38.48 47.33
476.92 37.27 43.76
477.12 38.75 48.54
477.03 38.34 47.3
476.98 38.62 48.54
476.89 38.21 47.31
476.76 38.09 47.31
476.62 37.96 47.33
476.57 38.24 48.53
476.48 37.83 47.32
476.29 37.98 48.53
476.39 37.87 48.54
476.52 37.98 48.52
476.45 37.67 47.59
476.65 38.11 48.53
476.57 37.7 47.33
476.79 38.24 48.54
476.72 37.89 47.5
476.92 38.36 48.53
477.06 38.48 48.5
477.2 38.62 48.54
477.33 38.74 48.53
477.41 38.57 47.65
477.09 37.03 43.06
477.51 38.58 47.31
477.3 36.99 42.19
477.7 38.4 46.01
477.41 36.98 41.77
477.76 38.15 44.89
477.54 37.07 41.68
477.99 38.2 44.27
477.85 37.52 42.24
477.98 37.6 42.1
478.14 37.83 46.49
478.06 37.99 47.34
477.85 37.51 46.31
477.86 38.14 48.55
477.53 37.05 45.71
477.39 36.95 45.8
477.3 37.02 46.39
477.39 37.98 49.6
477.31 37.62 48.54
477.08 37.08 47.33
477.11 37.73 49.64
477.0 37.2 48.06
476.89 37.23 48.54
477.03 37.17 48.38
477.27 37.81 49.89
477.39 37.89 49.77
477.31 37.47 48.54
477.31 36.95 46.64
477.42 36.94 46.25
477.59 37.24 46.76
477.53 36.98 46.0
477.71 37.3 46.57
477.98 38.09 48.54
477.84 37.4 46.49
478.05 37.89 47.57
478.16 37.92 47.28
477.36 37.8 52.46
