220.62 809.26 59.64
220.41 809.0 61.08
220.32 808.96 61.42
220.21 808.94 61.73
220.13 808.94 62.38
220.26 808.94 62.17
220.35 808.98 61.81
220.42 809.07 61.35
220.54 809.07 61.11
220.48 809.18 63.18
220.45 809.04 63.83
220.38 808.96 64.29
220.28 808.92 64.6
220.15 808.93 64.82
220.1 808.95 65.22
220.23 808.93 65.05
220.34 808.94 64.8
220.42 809.01 64.38
220.47 809.12 63.85
220.51 809.25 63.26
220.59 809.19 66.19
220.54 809.07 66.75
220.51 808.95 67.31
220.42 808.89 67.73
220.3 808.89 67.95
220.29 808.9 68.46
220.41 808.89 68.26
220.51 808.93 67.93
220.56 809.02 67.45
222.0 807.56 70.73
222.6 807.91 70.71
221.21 808.55 70.66
221.03 808.64 70.63
220.62 809.07 69.65
220.59 808.93 70.25
220.52 808.86 70.68
220.29 808.86 71.53
220.52 808.87 71.09
220.59 808.94 70.67
220.62 809.07 70.09
220.92 808.79 70.65
221.1 808.71 70.67
222.06 807.45 74.02
222.69 807.85 74.01
221.31 808.49 73.96
221.13 808.57 73.95
220.72 809.01 72.94
220.67 808.89 73.49
220.6 808.81 73.93
220.5 808.79 74.18
220.46 808.93 74.26
220.62 808.86 74.25
220.7 808.9 73.92
220.87 808.83 73.91
221.05 808.74 73.96
220.01 809.87 74.04
219.84 809.95 74.03
219.56 810.16 74.09
219.72 810.09 74.07
219.88 810.03 74.03
220.44 809.09 59.51
220.45 809.27 62.96
220.47 809.08 62.38
220.48 809.21 63.55
220.46 809.26 64.48
220.6 809.02 65.67
220.53 809.18 66.02
220.29 809.31 67.31
220.49 809.24 67.64
220.57 809.08 67.33
220.58 809.1 68.36
220.47 809.23 68.49
220.5 809.19 69.35
220.62 809.07 69.3
222.27 807.63 70.76
222.13 807.74 70.73
221.99 807.85 70.72
221.86 807.96 70.7
221.71 808.07 70.68
221.58 808.18 70.67
221.44 808.29 70.63
221.31 808.41 70.66
221.04 808.64 70.68
220.65 808.98 70.73
220.6 809.14 71.12
220.54 809.14 72.49
220.67 809.03 72.5
220.71 808.94 73.2
220.62 809.08 73.44
220.57 809.25 73.83
220.47 809.38 73.98
220.34 809.49 74.0
220.21 809.6 74.02
219.95 809.83 74.04
219.82 809.94 74.07
219.69 810.06 74.11
219.56 810.18 74.13
219.45 810.29 74.19
219.32 810.41 74.24
219.06 810.63 74.24
220.56 809.08 74.09
220.71 808.97 74.17
220.94 808.73 73.98
221.07 808.62 73.98
221.2 808.5 73.96
221.33 808.39 73.96
221.46 808.28 73.92
221.73 808.06 73.94
221.86 807.95 73.96
220.47 808.8 74.28
