547.11 59.74 36.76
547.14 59.6 37.13
547.27 59.49 37.16
547.23 59.5 38.26
547.12 59.62 38.17
547.09 59.77 37.77
547.19 59.97 36.93
547.16 59.91 38.62
547.11 59.73 39.28
547.16 59.59 39.61
547.3 59.48 39.59
547.0 58.52 44.54
547.41 59.45 40.81
547.2 59.53 41.02
547.12 59.66 40.82
547.13 59.82 40.31
547.19 60.01 39.63
545.4 61.47 41.44
545.48 61.35 41.63
547.24 59.94 41.93
547.17 59.76 42.62
547.17 59.61 43.09
547.26 59.49 43.25
546.47 58.45 48.17
548.03 58.52 44.45
548.36 58.54 44.58
547.21 59.54 44.17
547.16 59.67 43.89
546.17 60.72 42.93
546.08 60.85 42.75
545.99 60.97 42.59
544.79 62.04 43.63
544.87 61.92 43.79
547.06 60.06 44.5
547.14 59.93 44.71
547.19 59.8 45.01
547.17 59.64 45.54
547.25 59.5 45.75
547.44 59.42 45.59
547.78 58.47 47.71
546.75 58.45 51.27
547.4 59.42 46.86
547.23 59.52 46.94
547.19 59.65 46.64
547.24 59.83 45.98
545.83 61.03 45.56
545.74 61.15 45.38
544.86 61.99 46.89
544.95 61.87 47.05
545.04 61.75 47.21
547.76 60.88 43.74
547.18 59.91 47.98
547.25 59.78 48.18
547.23 59.62 48.72
547.27 59.49 49.03
547.45 59.4 48.91
547.77 58.45 51.02
548.07 58.53 51.07
547.29 59.47 50.01
547.23 59.59 49.77
547.27 59.76 49.16
547.81 61.34 43.21
545.77 61.07 48.62
545.68 61.19 48.43
545.58 61.31 48.31
546.67 60.33 50.35
546.77 60.22 50.45
546.84 60.09 50.69
546.92 59.97 50.89
547.28 59.79 50.6
547.24 59.63 51.2
547.25 59.49 51.59
547.44 59.4 51.44
547.73 59.2 51.37
547.34 59.44 52.74
547.24 59.56 52.61
547.27 59.72 52.06
548.43 60.57 46.87
549.1 61.23 45.55
548.25 60.34 50.15
548.56 60.72 49.27
549.13 61.28 47.86
545.02 61.83 40.72
545.15 61.74 40.98
545.43 61.5 41.48
545.88 61.07 42.3
546.04 60.82 42.76
545.66 61.2 45.24
545.29 61.57 47.68
545.49 61.42 48.02
545.86 61.05 45.58
546.23 60.67 43.1
547.08 59.76 37.32
547.18 59.95 37.64
547.34 60.01 37.35
547.41 59.99 38.09
547.23 59.96 38.54
547.1 59.82 38.48
546.36 60.55 43.33
545.98 60.92 45.81
545.61 61.29 48.25
545.71 61.18 48.46
546.08 60.81 46.03
547.14 59.84 39.37
547.27 59.96 39.37
547.45 60.0 38.91
547.86 61.22 43.37
547.73 59.96 39.46
547.59 59.85 39.54
547.36 59.94 40.59
547.2 59.87 40.84
547.1 59.67 40.48
546.64 60.23 43.9
546.26 60.61 46.39
545.89 60.98 48.84
546.5 60.48 46.71
546.87 60.12 44.28
547.09 59.68 42.1
547.2 59.84 42.3
547.36 59.92 42.04
547.58 59.86 41.12
547.7 60.77 43.89
547.69 60.51 44.22
547.7 59.72 41.52
547.42 59.88 42.97
547.25 59.85 43.39
547.0 59.96 44.57
547.14 59.67 43.12
546.63 60.34 47.05
546.27 60.71 49.48
546.36 60.61 49.66
546.72 60.23 47.2
547.28 59.86 44.14
547.46 59.89 43.66
547.63 60.31 44.55
547.32 59.84 45.72
546.86 59.98 47.65
546.5 60.34 50.05
546.81 58.55 44.63
546.76 60.21 50.46
547.2 59.71 47.33
547.33 59.82 47.3
547.54 59.79 46.52
548.43 60.66 46.68
548.58 60.74 46.46
549.28 61.35 47.58
548.13 60.23 47.46
547.98 60.15 47.67
547.83 60.07 47.88
547.68 59.99 48.07
547.67 59.65 46.95
547.4 59.79 48.3
547.25 59.72 48.54
546.9 60.05 50.81
547.12 58.42 44.52
546.97 59.95 50.97
547.26 59.71 49.22
547.4 59.8 49.06
548.87 61.02 48.5
549.02 61.09 48.27
548.3 60.43 49.99
548.15 60.34 50.17
547.52 59.73 50.11
547.33 59.75 50.81
547.22 59.59 50.59
546.83 58.45 47.95
547.37 58.46 47.74
547.22 59.55 51.93
547.31 59.74 52.26
547.49 59.75 51.74
547.64 59.82 51.51
547.79 59.89 51.24
547.52 59.71 52.77
547.34 59.7 53.33
547.22 59.57 53.25
547.76 58.45 47.7
546.64 58.46 51.34
546.88 58.43 51.22
547.31 59.46 53.34
547.44 59.58 53.34
547.57 59.69 53.3
547.75 59.31 51.4
547.43 58.47 51.02
547.83 58.43 51.01
548.34 58.5 51.16
