1246149.97 4852060.73 29.49
1246149.95 4852060.91 29.37
1246150.06 4852061.18 29.45
1246150.05 4852060.97 29.71
1246150.88 4852061.67 26.07
1246150.24 4852060.93 29.05
1246150.93 4852061.52 26.04
1246150.29 4852060.78 29.01
1246150.10 4852060.23 30.24
1246150.15 4852060.09 30.20
1246150.88 4852060.11 27.58
1246149.70 4852058.94 32.90
1246150.18 4852059.34 30.84
1246150.88 4852059.92 27.76
1246150.20 4852059.17 30.90
1246150.63 4852059.52 29.02
1246150.24 4852059.00 30.95
1246149.88 4852058.33 32.85
1246150.31 4852058.68 30.96
1246150.06 4852057.71 32.81
1246150.30 4852057.91 31.76
1246150.36 4852057.77 31.70
1246150.99 4852058.27 28.96
1246151.02 4852058.10 29.03
1246150.84 4852056.82 30.91
1246150.46 4852056.34 32.70
1246150.88 4852056.65 30.93
1246150.47 4852056.15 32.87
1246150.92 4852056.50 30.93
1246150.44 4852055.95 33.15
1246150.51 4852055.81 33.08
1246150.64 4852055.72 32.67
1246150.82 4852055.11 32.62
1246150.49 4852054.49 34.40
1246150.52 4852054.33 34.44
1246150.52 4852054.14 34.66
1246150.55 4852053.98 34.70
1246150.56 4852053.26 35.34
1246150.60 4852053.09 35.40
1246150.80 4852053.05 34.70
1246151.66 4852053.67 31.03
1246151.33 4852053.25 32.62
1246151.73 4852053.53 30.94
1246151.08 4852052.88 33.88
1246151.77 4852053.37 30.94
1246151.81 4852053.22 30.92
1246151.43 4852052.76 32.73
1246151.66 4852052.56 32.10
1246151.98 4852052.58 30.95
1246151.57 4852052.12 32.85
1246152.02 4852052.43 30.92
1246151.61 4852051.96 32.87
1246152.53 4852052.60 28.98
1246152.57 4852052.44 28.96
1246152.61 4852052.28 29.02
1246152.66 4852052.12 28.98
1246152.93 4852052.08 29.28
1246152.96 4852052.28 29.01
1246151.97 4852051.96 32.86
1246151.92 4852052.66 32.33
1246151.83 4852052.79 32.53
1246151.38 4852052.84 34.08
1246152.09 4852053.53 30.90
1246151.16 4852053.04 34.68
1246152.04 4852053.67 30.94
1246150.83 4852052.99 35.92
1246150.78 4852053.14 35.94
1246150.69 4852053.26 36.15
1246150.69 4852053.44 35.97
1246150.60 4852055.03 34.78
1246150.57 4852055.38 34.52
1246150.55 4852055.55 34.39
1246150.54 4852055.72 34.30
1246150.52 4852055.90 34.17
1246150.51 4852056.08 34.05
1246150.85 4852056.34 32.57
1246150.50 4852056.25 33.95
1246150.48 4852056.43 33.80
1246150.47 4852056.60 33.68
1246150.44 4852056.78 33.61
1246150.43 4852056.95 33.50
1246150.37 4852057.47 33.17
1246150.88 4852057.87 30.96
1246150.36 4852057.66 33.05
1246150.34 4852057.83 32.95
1246150.81 4852058.19 30.95
1246150.33 4852058.00 32.83
1246151.21 4852058.71 28.98
1246150.32 4852058.18 32.72
1246150.39 4852058.43 32.19
1246150.31 4852058.55 32.36
1246150.64 4852058.82 30.92
1246150.26 4852058.70 32.41
1246150.18 4852058.83 32.56
1246151.00 4852059.50 28.99
1246151.18 4852060.22 27.65
1246150.30 4852060.07 30.94
1246150.25 4852060.23 30.92
1246149.76 4852060.00 32.93
1246150.23 4852060.40 30.87
1246150.19 4852060.94 30.50
1246150.37 4852061.28 29.49
1246149.80 4852060.86 32.90
1246150.28 4852060.90 31.13
1246149.93 4852060.41 32.86
1246150.30 4852060.73 31.22
1246149.97 4852060.24 32.88
1246150.41 4852060.62 30.93
1246150.15 4852059.64 32.83
1246151.36 4852060.64 27.56
1246151.39 4852060.48 27.59
1246150.37 4852059.44 32.23
1246151.10 4852060.04 29.04
1246151.39 4852060.29 27.76
1246150.43 4852059.11 32.36
1246150.46 4852058.94 32.42
1246150.51 4852058.79 32.36
1246150.84 4852059.06 30.92
1246151.29 4852059.43 29.00
1246151.33 4852059.28 28.98
1246151.37 4852059.12 28.97
1246151.05 4852058.28 30.94
1246150.70 4852057.81 32.68
1246150.74 4852057.66 32.67
1246150.55 4852057.12 33.87
1246150.64 4852055.51 35.11
1246150.69 4852055.37 35.08
1246150.75 4852055.23 35.02
1246150.75 4852053.94 36.28
1246150.85 4852053.65 36.20
1246150.76 4852053.39 36.78
1246150.80 4852053.24 36.76
1246151.08 4852053.08 35.96
1246151.47 4852052.99 34.66
1246151.61 4852052.90 34.24
1246152.39 4852053.46 30.93
1246152.01 4852053.01 32.70
1246152.20 4852052.59 32.43
1246153.06 4852053.00 28.96
1246152.64 4852052.53 30.94
1246152.70 4852052.37 30.90
1246152.28 4852051.90 32.85
1246153.23 4852052.36 29.02
1246153.13 4852052.12 29.57
1246153.60 4852052.21 29.01
1246153.34 4852052.22 29.91
1246153.56 4852052.37 28.99
1246152.61 4852051.90 32.86
1246153.02 4852052.37 30.92
1246152.97 4852052.52 30.94
1246152.70 4852052.52 31.89
1246153.39 4852053.00 28.98
1246152.50 4852052.56 32.59
1246152.81 4852053.15 30.92
1246152.35 4852053.01 32.67
1246152.76 4852053.29 30.94
1246151.89 4852052.87 34.43
1246151.80 4852052.98 34.67
1246151.63 4852053.05 35.22
1246151.30 4852053.18 36.23
1246151.00 4852053.32 37.19
1246150.88 4852053.43 37.52
1246150.86 4852053.96 37.04
1246150.83 4852054.12 37.02
1246150.85 4852054.32 36.72
1246150.83 4852054.48 36.67
1246150.83 4852055.77 35.39
1246150.77 4852055.92 35.45
1246150.72 4852056.06 35.50
1246150.68 4852057.53 34.18
1246150.63 4852057.67 34.24
1246151.30 4852058.58 30.97
1246151.26 4852058.74 30.93
1246150.77 4852058.72 32.71
1246150.74 4852058.89 32.65
1246151.14 4852059.22 30.91
1246151.57 4852059.58 29.00
1246150.60 4852059.35 32.71
1246150.54 4852059.49 32.77
1246150.49 4852059.64 32.81
1246150.88 4852060.15 30.93
1246151.64 4852060.79 27.59
1246150.48 4852060.21 32.27
1246150.45 4852060.37 32.26
1246150.30 4852060.42 32.73
1246151.13 4852061.14 29.03
1246150.24 4852060.57 32.81
1246150.13 4852060.86 32.91
1246150.04 4852061.17 32.93
1246150.23 4852061.36 32.95
1246150.48 4852060.62 32.78
1246150.55 4852060.10 33.09
1246150.60 4852059.95 33.04
1246150.67 4852059.81 32.94
1246150.77 4852059.71 32.67
1246151.15 4852060.02 31.00
1246151.61 4852060.41 28.97
1246151.69 4852060.09 29.02
1246150.95 4852059.10 32.64
1246151.79 4852059.79 28.98
1246151.42 4852059.10 30.93
1246150.63 4852058.27 34.56
1246151.46 4852058.94 30.97
1246150.69 4852058.12 34.53
1246150.75 4852057.98 34.45
1246150.65 4852056.96 35.84
1246150.66 4852056.78 35.94
1246150.69 4852056.61 36.05
1246150.74 4852056.47 35.96
1246150.82 4852056.34 35.82
1246150.73 4852056.09 36.39
1246150.74 4852055.91 36.52
1246150.76 4852055.74 36.63
1246150.77 4852055.57 36.77
1246150.79 4852055.39 36.88
1246150.80 4852055.22 37.00
1246150.82 4852055.04 37.13
1246150.84 4852054.88 37.21
1246150.85 4852054.71 37.33
1246150.86 4852054.53 37.47
1246150.87 4852054.35 37.60
1246150.90 4852054.18 37.71
1246150.90 4852054.01 37.84
1246150.93 4852053.83 37.95
1246150.97 4852053.50 38.12
1246151.05 4852053.37 37.94
1246151.31 4852053.38 37.01
1246151.53 4852053.18 36.40
1246151.95 4852053.10 35.04
1246152.07 4852053.02 34.67
1246152.13 4852052.88 34.61
1246153.08 4852053.17 30.93
1246152.70 4852052.71 32.76
1246153.12 4852053.01 30.93
1246152.73 4852052.56 32.78
1246153.02 4852052.58 31.74
1246153.25 4852052.55 30.95
1246153.72 4852052.87 28.98
1246153.30 4852052.40 30.90
1246152.88 4852051.93 32.87
1246153.79 4852052.55 29.01
1246153.55 4852052.19 30.23
1246153.87 4852052.24 29.03
1246154.17 4852052.21 29.04
1246153.60 4852052.37 30.90
1246154.05 4852052.69 28.98
1246153.53 4852052.50 31.03
1246153.36 4852052.58 31.55
1246153.47 4852052.83 30.93
1246152.96 4852052.67 32.90
1246153.38 4852053.15 30.92
1246152.36 4852052.97 34.75
1246152.28 4852053.10 34.89
1246151.81 4852053.12 36.57
1246151.62 4852053.36 37.00
1246151.20 4852053.41 38.44
1246151.10 4852053.52 38.66
1246151.05 4852053.67 38.70
1246151.11 4852053.89 38.30
1246151.09 4852054.06 38.17
1246151.05 4852054.21 38.18
1246151.00 4852054.36 38.18
1246151.01 4852055.29 37.26
1246150.95 4852055.43 37.32
1246150.94 4852056.72 36.05
1246150.84 4852057.01 36.14
1246150.81 4852058.49 34.79
1246150.76 4852058.63 34.85
1246150.71 4852058.98 34.66
1246150.67 4852059.13 34.64
1246151.00 4852059.98 32.61
1246150.96 4852060.15 32.59
1246150.90 4852060.29 32.64
1246152.06 4852061.27 27.56
1246150.68 4852060.29 33.44
1246151.25 4852060.78 30.95
1246151.68 4852061.15 29.03
1246150.59 4852060.40 33.68
1246150.58 4852060.58 33.54
1246150.71 4852060.88 32.76
1246150.65 4852061.03 32.81
1246150.59 4852061.17 32.88
1246150.85 4852061.19 32.87
1246150.68 4852060.46 34.18
1246150.68 4852060.28 34.35
1246151.58 4852061.04 30.42
1246151.34 4852060.64 31.67
1246151.50 4852060.78 30.96
1246151.93 4852061.15 29.02
1246150.70 4852059.91 34.66
1246151.98 4852060.99 29.02
1246152.31 4852061.28 27.56
1246150.75 4852059.75 34.67
1246150.79 4852059.59 34.68
1246150.76 4852059.19 35.17
1246150.81 4852059.05 35.13
1246150.87 4852058.91 35.07
1246151.81 4852059.69 30.93
1246151.85 4852059.53 30.95
1246150.91 4852057.42 36.45
1246150.95 4852057.28 36.41
1246151.02 4852055.85 37.62
1246151.07 4852055.70 37.56
1246151.05 4852055.14 38.19
1246151.11 4852054.99 38.18
1246151.15 4852054.85 38.16
1246151.12 4852054.26 38.85
1246151.17 4852054.13 38.80
1246151.23 4852053.99 38.73
1246151.16 4852053.75 39.21
1246151.20 4852053.61 39.20
1246151.29 4852053.48 39.03
1246151.43 4852053.41 38.61
1246151.69 4852053.41 37.69
1246151.93 4852053.23 36.98
1246152.04 4852053.12 36.73
1246152.61 4852052.98 34.84
1246152.71 4852052.87 34.58
1246153.66 4852053.17 30.94
1246153.20 4852052.66 33.03
1246153.42 4852052.09 32.83
1246153.87 4852052.39 30.94
1246154.49 4852052.08 29.05
1246154.82 4852052.11 29.03
1246154.74 4852052.43 28.99
1246154.23 4852052.27 30.96
1246153.73 4852052.11 32.88
1246154.17 4852052.41 31.02
1246153.71 4852052.28 32.78
1246153.68 4852052.44 32.76
1246153.48 4852052.67 33.21
1246153.56 4852052.91 32.67
1246153.97 4852053.19 30.94
1246153.09 4852052.94 34.33
1246152.87 4852052.98 35.09
1246152.32 4852053.12 36.92
1246152.25 4852053.26 36.99
1246152.12 4852053.35 37.39
1246151.85 4852053.51 38.20
1246151.34 4852053.68 39.84
1246151.28 4852053.81 39.94
1246151.29 4852054.55 39.14
1246151.24 4852054.69 39.20
1246151.21 4852055.78 38.18
1246151.17 4852055.94 38.16
1246151.13 4852056.09 38.17
1246151.13 4852056.28 37.98
1246151.08 4852056.42 38.00
1246151.07 4852057.72 36.73
1246151.02 4852057.86 36.79
1246150.96 4852058.00 36.83
1246152.17 4852059.57 30.93
1246152.62 4852059.94 28.97
1246152.04 4852060.04 30.95
1246150.94 4852059.49 35.43
1246152.53 4852060.84 28.38
1246150.88 4852059.63 35.49
1246150.83 4852059.77 35.52
1246151.47 4852060.33 32.67
1246152.31 4852061.03 29.02
1246151.62 4852060.64 31.86
1246151.84 4852060.83 30.88
1246150.81 4852060.13 35.23
1246151.15 4852060.43 33.71
1246150.80 4852060.32 35.08
1246151.12 4852061.36 32.91
1246151.47 4852060.97 32.81
1246150.83 4852060.24 35.80
1246150.85 4852060.06 35.92
1246150.86 4852059.89 36.05
1246151.78 4852060.67 32.00
1246150.88 4852059.71 36.18
1246152.06 4852060.72 30.93
1246152.50 4852061.09 29.01
1246150.89 4852059.53 36.29
1246150.92 4852059.36 36.41
1246152.15 4852060.41 30.93
1246150.93 4852059.18 36.53
1246152.19 4852060.24 30.97
1246152.65 4852060.62 28.96
1246150.95 4852059.00 36.67
1246150.96 4852058.83 36.77
1246150.98 4852058.65 36.91
1246152.33 4852059.78 30.92
1246150.99 4852058.48 37.02
1246151.01 4852058.31 37.10
1246151.05 4852058.15 37.16
1246151.04 4852057.95 37.39
1246151.06 4852057.78 37.51
1246151.07 4852057.60 37.63
1246151.09 4852057.42 37.76
1246151.11 4852057.25 37.85
1246151.13 4852056.72 38.29
1246151.20 4852056.58 38.23
1246151.21 4852056.40 38.34
1246151.18 4852056.19 38.68
1246151.19 4852056.02 38.82
1246151.20 4852055.84 38.95
1246151.22 4852055.67 39.07
1246151.23 4852055.49 39.21
1246151.24 4852055.32 39.35
1246151.25 4852055.15 39.47
1246151.28 4852054.80 39.72
1246151.30 4852054.62 39.86
1246151.30 4852054.44 40.00
1246151.33 4852054.10 40.24
1246151.37 4852053.77 40.43
1246151.84 4852053.57 38.97
1246151.89 4852053.42 38.94
1246152.08 4852053.56 38.17
1246152.38 4852053.41 37.23
1246152.45 4852053.29 37.07
1246152.51 4852053.14 37.05
1246153.06 4852052.99 35.23
1246153.40 4852052.87 34.11
1246153.67 4852052.69 33.35
1246154.24 4852053.09 30.93
1246153.90 4852052.48 32.75
1246154.37 4852052.61 30.94
1246154.82 4852052.93 29.03
1246154.41 4852052.45 30.97
1246154.41 4852052.27 31.13
1246154.59 4852052.22 30.54
1246155.00 4852052.31 28.99
1246155.03 4852052.15 29.03
1246155.38 4852052.00 29.00
1246155.20 4852052.05 29.57
1246154.73 4852052.30 30.97
1246154.61 4852052.41 31.31
1246154.65 4852052.62 30.93
1246155.12 4852052.93 28.99
1246154.19 4852052.48 32.76
1246153.92 4852052.66 33.50
1246153.82 4852052.77 33.76
1246154.07 4852052.96 32.66
1246153.73 4852052.90 33.93
1246153.30 4852052.96 35.40
1246152.73 4852053.27 37.11
1246152.37 4852053.55 38.15
1246152.10 4852053.54 39.12
1246151.51 4852053.82 40.94
1246151.42 4852053.94 41.11
1246151.48 4852054.16 40.69
1246151.43 4852054.30 40.76
1246151.40 4852055.38 39.74
1246151.67 4852055.97 38.15
1246151.63 4852056.12 38.15
1246151.58 4852056.26 38.20
1246151.42 4852056.88 38.16
1246151.31 4852056.97 38.45
1246151.23 4852057.10 38.59
1246151.19 4852057.25 38.59
1246151.25 4852057.47 38.16
1246151.19 4852057.63 38.18
1246151.15 4852057.78 38.18
1246151.18 4852058.55 37.30
1246153.06 4852060.12 28.99
1246151.12 4852058.69 37.36
1246152.58 4852059.92 30.92
1246151.07 4852058.83 37.41
1246151.10 4852059.06 37.04
1246151.04 4852059.37 36.99
1246152.38 4852060.52 30.99
1246152.04 4852060.61 32.15
1246152.30 4852060.84 30.96
1246151.57 4852060.40 34.02
1246150.97 4852060.07 36.50
1246151.60 4852061.40 32.90
1246151.89 4852061.11 32.84
1246151.95 4852060.96 32.80
1246151.05 4852059.99 37.03
1246151.14 4852059.68 37.03
1246152.21 4852060.60 32.25
1246152.55 4852060.70 30.94
1246152.99 4852061.08 29.00
1246152.60 4852060.55 30.92
1246153.03 4852060.92 28.99
1246151.13 4852059.11 37.63
1246151.19 4852058.97 37.57
1246152.78 4852059.93 30.92
1246151.18 4852058.40 38.18
1246153.25 4852060.14 29.01
1246151.21 4852058.23 38.27
1246151.27 4852058.09 38.17
1246151.30 4852057.94 38.21
1246151.24 4852057.52 38.86
1246151.35 4852057.23 38.76
1246151.58 4852057.05 38.16
1246151.36 4852055.94 40.07
1246151.47 4852055.66 39.96
1246151.93 4852055.84 38.16
1246151.97 4852055.69 38.14
1246151.49 4852054.58 41.01
1246151.55 4852054.44 40.93
1246151.56 4852053.89 41.48
1246151.81 4852053.72 40.76
1246152.29 4852053.53 39.25
1246152.62 4852053.42 38.19
1246152.90 4852053.26 37.31
1246153.49 4852052.95 35.52
1246154.05 4852052.80 33.73
1246154.12 4852052.67 33.61
1246154.84 4852052.80 30.91
1246155.32 4852052.96 28.99
1246154.80 4852052.40 31.43
1246154.97 4852052.33 30.93
1246154.55 4852051.87 32.87
1246155.59 4852052.01 29.04
1246155.75 4852051.94 28.52
1246156.80 4852051.53 26.48
1246156.69 4852051.65 26.76
1246156.54 4852051.73 27.20
1246156.40 4852051.83 27.58
1246155.94 4852052.07 29.01
1246155.74 4852052.12 29.70
1246155.85 4852052.38 29.00
1246155.81 4852052.53 29.00
1246154.83 4852052.24 32.78
1246155.11 4852052.42 31.61
1246154.80 4852052.38 32.75
1246155.18 4852052.84 30.92
1246155.63 4852053.16 29.01
1246154.72 4852052.71 32.69
1246154.42 4852052.69 33.79
1246154.65 4852053.03 32.61
1246153.80 4852052.97 35.72
1246153.55 4852053.16 36.41
1246153.20 4852053.28 37.53
1246152.98 4852053.47 38.15
1246152.59 4852053.54 39.46
1246152.53 4852053.69 39.52
1246152.10 4852053.74 40.99
1246151.70 4852053.98 42.16
1246151.61 4852054.09 42.39
1246151.56 4852054.23 42.44
1246151.53 4852054.56 42.19
1246152.45 4852055.28 38.16
1246151.51 4852054.73 42.06
1246151.60 4852054.98 41.51
1246151.53 4852055.12 41.63
1246151.47 4852055.25 41.69
1246151.46 4852055.41 41.57
1246151.44 4852055.59 41.43
1246151.43 4852055.76 41.31
1246151.41 4852055.93 41.20
1246151.41 4852056.11 41.03
1246151.48 4852056.36 40.52
1246151.38 4852056.46 40.75
1246151.36 4852056.62 40.70
1246151.34 4852056.79 40.57
1246151.33 4852056.97 40.43
1246151.85 4852057.40 38.15
1246151.31 4852057.15 40.30
1246151.29 4852057.32 40.21
1246151.27 4852057.49 40.08
1246151.27 4852057.67 39.94
1246151.45 4852057.82 39.16
1246151.37 4852057.95 39.26
1246151.32 4852058.07 39.33
1246151.25 4852058.21 39.46
1246153.60 4852060.19 29.00
1246151.18 4852058.72 39.17
1246151.31 4852059.21 38.18
1246153.38 4852060.98 28.99
1246151.28 4852059.36 38.18
1246151.24 4852059.52 38.10
1246151.20 4852059.68 38.10
1246151.17 4852059.83 38.08
1246152.25 4852061.15 32.85
1246151.31 4852060.01 38.14
1246151.25 4852059.76 38.61
1246151.49 4852059.40 38.14
1246152.72 4852060.46 32.63
1246153.09 4852060.78 30.96
1246153.63 4852060.85 28.99
1246153.29 4852060.17 30.92
1246151.39 4852058.37 39.54
1246151.46 4852058.24 39.46
1246152.01 4852057.57 38.15
1246151.51 4852056.79 40.75
1246151.57 4852056.66 40.68
1246151.59 4852055.56 41.75
1246152.68 4852055.31 38.12
1246151.67 4852054.35 42.70
1246152.72 4852055.16 38.15
1246151.68 4852054.17 42.87
1246151.77 4852054.06 42.64
1246152.29 4852053.72 41.16
1246152.78 4852053.55 39.61
1246153.20 4852053.49 38.15
1246153.40 4852053.27 37.67
1246153.82 4852053.21 36.23
1246153.90 4852053.08 36.07
1246153.99 4852052.96 35.87
1246154.88 4852053.05 32.62
1246154.63 4852052.68 33.91
1246154.86 4852052.67 33.10
1246155.37 4852053.02 30.91
1246155.86 4852053.18 29.00
1246155.03 4852052.41 32.74
1246155.31 4852052.42 31.76
1246156.04 4852052.55 29.01
1246155.84 4852052.22 30.06
1246156.18 4852052.08 29.01
1246156.60 4852052.00 27.57
1246156.64 4852051.83 27.63
1246157.13 4852051.60 26.09
1246157.26 4852051.51 25.74
1246157.38 4852051.39 25.43
1246158.22 4852051.12 23.86
1246158.10 4852051.24 24.13
1246157.96 4852051.33 24.55
1246157.44 4852051.56 26.16
1246157.42 4852051.73 26.06
1246156.97 4852051.79 27.63
1246157.11 4852052.07 26.82
1246151.26 4852048.63 51.29
1246155.74 4852052.82 30.92
1246155.16 4852052.78 33.02
1246155.65 4852053.13 30.91
1246154.87 4852052.76 34.09
1246154.25 4852053.05 36.01
1246154.21 4852053.20 35.99
1246153.65 4852053.35 37.83
1246153.53 4852053.43 38.17
1246153.34 4852053.47 38.83
1246153.26 4852053.60 38.97
1246153.03 4852053.61 39.80
1246153.22 4852054.49 38.15
1246152.30 4852053.97 42.02
1246152.22 4852054.09 42.17
1246152.01 4852054.12 42.87
1246153.10 4852054.96 38.13
1246151.85 4852054.17 43.41
1246151.78 4852054.29 43.53
1246151.81 4852054.68 43.03
1246151.75 4852054.81 43.10
1246152.78 4852055.99 38.18
1246152.74 4852056.15 38.15
1246152.71 4852056.31 38.13
1246151.72 4852055.89 42.08
1246151.66 4852056.02 42.13
1246151.65 4852057.12 41.03
1246151.60 4852057.26 41.09
1246153.61 4852060.10 30.93
1246151.53 4852058.70 39.82
1246151.92 4852059.02 38.12
1246153.97 4852060.77 29.00
1246151.47 4852058.84 39.90
1246151.43 4852058.98 39.92
1246153.44 4852060.71 30.95
1246153.86 4852061.08 29.03
1246152.98 4852060.52 32.74
1246152.51 4852060.30 34.67
1246151.39 4852059.52 39.48
1246152.04 4852060.09 36.57
1246151.40 4852059.71 39.26
1246152.79 4852061.12 32.82
1246153.02 4852061.04 32.80
1246151.46 4852059.49 39.97
1246151.58 4852059.02 40.08
1246153.19 4852060.41 32.86
1246153.62 4852060.79 30.92
1246153.29 4852060.31 32.61
1246153.66 4852060.63 30.95
1246154.09 4852061.00 29.03
1246151.64 4852057.58 41.34
1246151.71 4852057.44 41.28
1246152.45 4852057.88 38.15
1246151.71 4852056.34 42.40
1246151.77 4852056.20 42.35
1246151.82 4852056.07 42.29
1246152.75 4852056.83 38.18
1246152.80 4852056.66 38.22
1246151.80 4852055.13 43.38
1246151.85 4852054.99 43.33
1246151.87 4852054.27 44.04
1246151.98 4852054.18 43.74
1246152.22 4852054.01 43.01
1246152.51 4852054.05 41.97
1246152.59 4852053.93 41.81
1246152.71 4852053.83 41.48
1246153.55 4852054.12 38.16
1246153.61 4852053.97 38.14
1246153.24 4852053.51 39.95
1246153.56 4852053.56 38.77
1246153.63 4852053.44 38.63
1246153.78 4852053.37 38.15
1246153.87 4852053.24 37.98
1246154.49 4852052.97 36.05
1246155.09 4852052.65 34.23
1246155.86 4852053.20 30.92
1246155.77 4852052.40 32.06
1246156.09 4852052.43 30.91
1246156.13 4852052.28 30.93
1246156.86 4852052.59 28.01
1246156.75 4852051.95 29.04
1246157.37 4852052.19 26.62
1246157.08 4852051.80 28.05
1246157.58 4852051.57 26.47
1246157.73 4852051.50 26.04
1246158.18 4852051.42 24.53
1246158.23 4852051.25 24.51
1246158.58 4852051.11 23.43
1246158.73 4852051.01 23.00
1246158.83 4852050.89 22.74
1246159.56 4852050.75 21.45
1246159.41 4852050.85 21.88
1246159.06 4852051.00 22.99
1246158.91 4852051.09 23.43
1246158.56 4852051.24 24.51
1246158.07 4852051.48 26.03
1246158.42 4852051.72 24.50
1246157.85 4852051.53 26.71
1246157.57 4852051.71 27.57
1246152.07 4852048.70 50.39
1246157.04 4852052.10 29.03
1246156.99 4852052.26 29.02
1246156.69 4852053.35 28.98
1246156.63 4852053.51 29.00
1246155.04 4852052.92 35.33
1246154.96 4852053.04 35.47
1246154.72 4852053.05 36.33
1246154.11 4852053.34 38.19
1246154.02 4852053.46 38.39
1246154.03 4852053.65 38.18
1246153.49 4852053.61 40.13
1246153.00 4852053.78 41.70
1246152.98 4852053.96 41.60
1246152.47 4852054.12 43.23
1246152.03 4852054.31 44.62
1246151.94 4852054.43 44.81
1246151.98 4852055.36 43.67
1246151.93 4852055.50 43.76
1246151.91 4852056.58 42.68
1246151.85 4852056.72 42.75
1246151.79 4852056.85 42.79
1246152.78 4852057.86 38.21
1246152.74 4852058.02 38.17
1246152.70 4852058.17 38.16
1246152.67 4852058.33 38.14
1246151.78 4852057.96 41.66
1246154.19 4852060.00 30.92
1246151.72 4852058.09 41.73
1246154.56 4852060.51 29.04
1246151.68 4852058.23 41.77
1246154.05 4852060.47 30.93
1246153.49 4852060.37 32.99
1246153.97 4852060.77 30.91
1246153.01 4852060.14 35.00
1246153.45 4852060.53 33.00
1246153.79 4852060.83 31.46
1246152.26 4852059.68 38.15
1246152.53 4852059.93 36.90
1246153.05 4852060.38 34.56
1246151.61 4852059.49 40.65
1246151.66 4852059.38 41.44
1246151.93 4852059.63 40.19
1246151.67 4852059.21 41.56
1246152.23 4852059.70 39.09
1246153.19 4852060.16 35.14
1246153.68 4852060.39 33.16
1246154.17 4852060.82 30.93
1246151.80 4852058.40 41.96
1246154.74 4852060.71 29.03
1246154.78 4852060.57 29.04
1246152.88 4852058.37 38.15
1246151.81 4852057.28 43.13
1246152.92 4852058.21 38.17
1246151.93 4852057.01 43.00
1246151.95 4852055.92 44.09
1246152.01 4852055.79 44.01
1246152.02 4852054.88 44.94
1246152.09 4852054.75 44.86
1246152.02 4852054.52 45.33
1246152.09 4852054.39 45.20
1246152.24 4852054.31 44.77
1246152.42 4852054.29 44.14
1246152.67 4852054.12 43.40
1246153.16 4852053.95 41.88
1246153.32 4852053.88 41.37
1246153.70 4852053.62 40.29
1246154.32 4852053.54 38.14
1246154.32 4852053.35 38.34
1246154.92 4852053.07 36.49
1246156.35 4852053.54 30.91
1246155.56 4852052.78 34.52
1246156.97 4852053.23 29.01
1246156.26 4852052.54 32.31
1246156.28 4852052.37 32.38
1246156.30 4852051.82 32.92
1246156.86 4852052.21 30.51
1246157.18 4852052.05 29.54
1246157.34 4852051.98 29.03
1246158.01 4852052.44 26.16
1246158.08 4852052.29 26.06
1246157.58 4852051.76 28.42
1246157.82 4852051.74 27.56
1246158.63 4852051.90 24.52
1246158.32 4852051.51 26.03
1246158.51 4852051.45 25.44
1246158.81 4852051.27 24.51
1246158.98 4852051.20 24.01
1246159.22 4852051.35 23.00
1246159.20 4852051.14 23.31
1246159.51 4852050.97 22.36
1246159.59 4852050.83 22.18
1246159.79 4852051.21 21.94
1246159.37 4852051.13 23.49
1246159.70 4852051.34 22.09
1246159.20 4852051.20 24.00
1246159.04 4852051.29 24.49
1246159.39 4852051.52 23.00
1246158.67 4852051.42 25.68
1246158.55 4852051.52 26.04
1246158.20 4852051.67 27.10
1246158.80 4852052.07 24.53
1246158.05 4852051.76 27.56
1246157.73 4852051.91 28.51
1246157.56 4852051.98 29.04
1246157.33 4852052.02 29.82
1246158.20 4852052.60 26.13
1246152.57 4852048.92 50.15
1246157.18 4852052.09 30.28
1246156.94 4852052.30 30.90
1246156.49 4852052.54 32.28
1246155.77 4852052.76 34.64
1246157.07 4852053.69 29.00
1246155.66 4852052.88 34.91
1246156.56 4852053.53 30.96
1246155.58 4852053.01 35.05
1246155.12 4852053.04 36.63
1246154.73 4852053.29 37.80
1246154.52 4852053.33 38.49
1246154.52 4852053.69 38.14
1246153.90 4852053.59 40.43
1246153.85 4852053.73 40.45
1246153.67 4852053.79 41.02
1246153.61 4852053.92 41.13
1246153.37 4852053.91 42.01
1246152.87 4852054.09 43.58
1246154.11 4852055.04 38.14
1246152.80 4852054.21 43.71
1246152.71 4852054.31 43.93
1246152.43 4852054.29 44.95
1246152.18 4852054.44 45.65
1246152.09 4852054.55 45.87
1246152.18 4852054.98 45.11
1246152.06 4852055.25 45.23
1246152.05 4852056.15 44.33
1246151.99 4852056.29 44.40
1246153.17 4852058.19 38.15
1246151.98 4852057.38 43.28
1246154.65 4852060.02 30.93
1246154.98 4852060.69 29.01
1246154.08 4852060.31 32.64
1246154.45 4852060.64 30.95
1246154.88 4852061.01 29.02
1246153.89 4852060.34 33.28
1246154.40 4852060.78 31.00
1246151.80 4852058.90 42.30
1246152.72 4852059.70 38.14
1246152.94 4852059.90 37.15
1246151.76 4852059.24 42.08
1246151.85 4852059.20 42.63
1246151.86 4852059.03 42.79
1246152.26 4852059.38 40.96
1246152.66 4852059.54 39.36
1246152.93 4852059.78 38.15
1246153.16 4852059.78 37.33
1246153.58 4852060.15 35.41
1246153.89 4852060.42 34.01
1246151.90 4852058.50 43.20
1246154.07 4852060.39 33.41
1246151.94 4852057.98 43.62
1246154.39 4852060.08 32.57
1246155.19 4852060.78 29.00
1246151.97 4852057.81 43.68
1246151.99 4852057.65 43.77
1246153.25 4852058.72 38.14
1246151.98 4852057.45 44.07
1246154.90 4852059.94 30.93
1246151.98 4852057.28 44.21
1246155.38 4852060.16 28.97
1246152.00 4852057.10 44.36
1246155.44 4852060.00 28.97
1246152.01 4852056.75 44.67
1246152.04 4852056.58 44.77
1246152.04 4852056.41 44.92
1246152.05 4852056.22 45.11
1246152.06 4852056.05 45.27
1246152.07 4852055.87 45.42
1246152.08 4852055.70 45.56
1246152.10 4852055.53 45.69
1246152.11 4852055.36 45.83
1246152.11 4852055.18 46.01
1246152.12 4852055.01 46.16
1246152.13 4852054.84 46.31
1246152.14 4852054.66 46.48
1246152.19 4852054.52 46.43
1246152.26 4852054.40 46.32
1246152.63 4852054.32 45.11
1246153.04 4852054.28 43.67
1246153.07 4852054.12 43.73
1246154.38 4852054.97 38.13
1246153.55 4852053.96 42.20
1246153.59 4852053.81 42.19
1246153.93 4852053.87 40.91
1246154.00 4852053.76 40.80
1246154.10 4852053.64 40.59
1246154.70 4852053.91 38.13
1246154.74 4852053.76 38.15
1246154.72 4852053.37 38.64
1246155.05 4852053.25 37.60
1246155.33 4852053.09 36.76
1246157.21 4852054.09 28.97
1246155.91 4852052.95 34.85
1246156.81 4852053.61 30.92
1246157.25 4852053.93 28.98
1246155.98 4852052.82 34.76
1246156.52 4852053.02 32.62
1246157.35 4852053.62 29.00
1246157.48 4852053.15 28.99
1246156.71 4852052.41 32.58
1246157.17 4852052.37 30.94
1246157.23 4852052.22 30.92
1246157.46 4852052.19 30.13
1246158.34 4852052.80 26.33
1246157.53 4852052.05 30.00
1246158.46 4852052.69 26.04
1246157.81 4852052.06 29.01
1246157.99 4852051.80 28.65
1246158.29 4852051.82 27.58
1246158.37 4852051.69 27.43
1246159.03 4852052.14 24.56
1246158.78 4852051.59 26.05
1246158.85 4852051.46 25.95
1246159.03 4852051.39 25.38
1246159.19 4852051.30 24.89
1246158.94 4852051.56 26.55
1246158.77 4852051.62 27.05
1246159.56 4852052.15 23.68
1246158.62 4852051.71 27.53
1246159.32 4852052.18 24.52
1246158.56 4852051.86 27.58
1246159.28 4852052.35 24.49
1246158.23 4852051.82 28.81
1246159.22 4852052.50 24.54
1246151.24 4852047.23 58.76
1246158.13 4852051.94 29.02
1246151.06 4852047.60 58.98
1246153.10 4852049.02 50.18
1246157.69 4852052.20 30.34
1246156.94 4852052.43 32.76
1246158.10 4852053.42 27.57
1246157.97 4852053.53 27.89
1246156.35 4852052.74 34.53
1246157.62 4852053.65 29.02
1246156.24 4852052.84 34.82
1246157.13 4852053.49 30.94
1246157.09 4852053.63 30.95
1246157.54 4852053.97 28.97
1246156.99 4852053.95 30.94
1246157.44 4852054.27 28.99
1246155.58 4852053.11 36.92
1246157.40 4852054.43 28.96
1246155.45 4852053.19 37.30
1246155.38 4852053.32 37.40
1246155.15 4852053.34 38.18
1246154.96 4852053.38 38.83
1246154.35 4852053.64 40.75
1246154.94 4852054.10 38.15
1246154.33 4852053.82 40.61
1246153.83 4852053.81 42.40
1246153.80 4852053.96 42.35
1246153.51 4852054.10 43.23
1246154.66 4852054.99 38.15
1246153.31 4852054.12 43.95
1246152.87 4852054.32 45.32
1246152.42 4852054.52 46.69
1246152.32 4852054.60 46.95
1246152.27 4852054.75 46.99
1246152.27 4852054.93 46.77
1246152.26 4852055.84 45.87
1246152.20 4852055.96 45.93
1246152.19 4852056.86 44.98
1246153.72 4852058.16 38.12
1246152.13 4852057.00 45.07
1246155.70 4852060.03 29.04
1246155.18 4852059.97 30.93
1246155.05 4852060.44 30.93
1246155.48 4852060.81 28.99
1246152.06 4852058.24 43.99
1246152.00 4852058.38 44.03
1246153.86 4852060.01 35.60
1246154.31 4852060.39 33.63
1246153.40 4852059.79 37.52
1246153.83 4852060.16 35.57
1246154.22 4852060.50 33.81
1246151.97 4852058.90 43.60
1246152.50 4852059.38 41.18
1246152.04 4852058.84 44.26
1246152.08 4852058.68 44.32
1246152.73 4852059.26 41.34
1246152.13 4852058.56 44.24
1246153.48 4852059.74 38.12
1246155.14 4852060.59 31.29
1246155.63 4852061.03 29.05
1246153.67 4852059.13 38.15
1246155.69 4852060.88 29.02
1246154.96 4852060.05 32.55
1246152.15 4852057.44 45.40
1246155.36 4852060.20 30.93
1246152.20 4852057.31 45.35
1246152.26 4852057.18 45.28
1246153.94 4852058.22 38.16
1246155.98 4852059.94 28.99
1246152.27 4852056.27 46.25
1246152.33 4852056.14 46.16
1246152.29 4852055.38 47.13
1246152.35 4852055.24 47.08
1246152.42 4852055.11 46.99
1246152.33 4852054.86 47.54
1246152.37 4852054.71 47.59
1246152.62 4852054.54 46.87
1246152.87 4852054.56 45.96
1246152.95 4852054.45 45.75
1246153.06 4852054.35 45.51
1246153.50 4852054.15 44.12
1246153.78 4852054.19 43.09
1246153.85 4852054.07 42.95
1246154.00 4852054.00 42.53
1246154.04 4852053.85 42.56
1246155.13 4852054.31 38.12
1246154.75 4852053.65 40.22
1246155.16 4852053.41 39.00
1246155.40 4852053.41 38.14
1246157.54 4852054.81 28.98
1246155.72 4852053.27 37.18
1246157.59 4852054.65 29.01
1246155.79 4852053.14 37.07
1246157.19 4852054.17 30.96
1246157.28 4852053.86 30.93
1246157.73 4852054.18 28.99
1246156.43 4852052.87 35.08
1246156.56 4852052.78 34.68
1246157.16 4852052.45 32.89
1246157.35 4852052.40 32.28
1246153.27 4852049.37 50.13
1246157.58 4852052.38 31.47
1246157.75 4852052.32 30.91
1246158.28 4852051.93 29.45
1246151.67 4852047.24 58.17
1246158.45 4852051.86 28.94
1246158.65 4852051.81 28.29
1246158.81 4852051.73 27.79
1246158.59 4852051.91 29.23
1246158.43 4852052.00 29.67
1246153.59 4852049.00 50.28
1246158.83 4852052.64 27.56
1246157.55 4852051.94 32.89
1246158.02 4852052.27 30.89
1246159.12 4852053.03 26.07
1246153.49 4852049.46 50.16
1246157.60 4852052.35 32.27
1246157.34 4852052.54 33.00
1246157.82 4852052.87 30.93
1246157.77 4852053.02 30.96
1246158.68 4852053.67 26.95
1246158.50 4852053.73 27.55
1246156.82 4852052.72 34.67
1246158.12 4852053.65 29.00
1246156.66 4852052.77 35.19
1246158.23 4852054.10 28.13
1246157.49 4852053.94 30.93
1246156.02 4852053.06 37.14
1246157.88 4852054.43 28.99
1246156.01 4852053.24 37.00
1246157.34 4852054.40 30.95
1246155.66 4852053.34 38.18
1246157.70 4852055.04 28.98
1246155.35 4852053.47 39.13
1246155.06 4852053.61 40.01
1246154.99 4852053.74 40.11
1246154.73 4852053.73 41.05
1246155.34 4852054.38 38.15
1246154.22 4852053.89 42.70
1246154.10 4852054.16 42.84
1246155.16 4852054.99 38.13
1246153.69 4852054.20 44.28
1246153.24 4852054.39 45.67
1246153.20 4852054.54 45.65
1246152.80 4852054.59 47.03
1246152.48 4852054.68 48.09
1246152.42 4852054.82 48.13
1246152.39 4852054.97 48.07
1246152.39 4852055.14 47.93
1246152.37 4852055.32 47.77
1246152.35 4852055.67 47.45
1246152.35 4852055.83 47.31
1246152.33 4852056.01 47.16
1246152.32 4852056.18 47.00
1246152.31 4852056.36 46.85
1246156.29 4852059.70 28.95
1246152.33 4852056.55 46.56
1246152.30 4852056.70 46.54
1246152.28 4852056.88 46.38
1246152.27 4852057.05 46.24
1246155.66 4852059.95 30.93
1246152.26 4852057.23 46.08
1246155.61 4852060.11 30.92
1246152.22 4852057.74 45.68
1246153.88 4852059.18 38.15
1246154.74 4852060.31 33.82
1246153.78 4852059.67 37.97
1246154.24 4852060.08 35.85
1246154.94 4852060.69 32.70
1246153.32 4852059.46 39.84
1246153.69 4852059.79 38.16
1246152.55 4852058.97 43.15
1246152.91 4852059.29 41.50
1246152.10 4852058.76 44.96
1246152.13 4852058.97 44.65
1246152.20 4852058.90 45.19
1246152.19 4852058.70 45.46
1246152.71 4852058.98 43.27
1246153.07 4852059.30 41.61
1246153.12 4852059.15 41.63
1246153.48 4852059.47 39.96
1246153.93 4852059.68 38.13
1246154.40 4852060.10 35.97
1246152.32 4852057.89 45.87
1246154.02 4852059.37 38.13
1246155.44 4852060.62 31.68
1246155.65 4852060.61 30.94
1246155.95 4852060.87 29.61
1246156.22 4852060.91 28.54
1246156.23 4852060.51 28.99
1246152.33 4852056.98 46.85
1246155.84 4852059.99 30.94
1246156.28 4852060.36 28.99
1246152.38 4852056.85 46.78
1246152.45 4852056.71 46.71
1246154.39 4852058.17 38.13
1246156.47 4852059.74 29.00
1246156.53 4852059.59 28.95
1246152.42 4852055.95 47.68
1246152.47 4852055.81 47.62
1246152.53 4852055.68 47.55
1246152.48 4852055.10 48.38
1246152.47 4852054.92 48.59
1246152.56 4852054.80 48.40
1246152.64 4852054.69 48.25
1246152.97 4852054.59 47.18
1246153.59 4852054.36 45.24
1246153.86 4852054.21 44.42
1246154.40 4852054.10 42.58
1246154.40 4852053.91 42.81
1246155.50 4852054.58 38.14
1246154.90 4852053.75 41.18
1246155.29 4852053.68 39.88
1246155.36 4852053.55 39.76
1246157.81 4852055.38 28.98
1246155.52 4852053.47 39.27
1246157.85 4852055.23 29.03
1246155.57 4852053.33 39.29
1246157.46 4852054.75 30.94
1246155.86 4852053.36 38.20
1246158.05 4852054.61 28.98
1246156.22 4852053.08 37.19
1246158.36 4852054.27 28.25
1246156.84 4852052.80 35.30
1246157.03 4852052.74 34.67
1246157.26 4852052.73 33.88
1246157.58 4852052.77 32.69
1246157.54 4852052.55 33.07
1246158.80 4852053.45 27.57
1246153.69 4852049.47 50.22
1246157.79 4852052.36 32.35
1246158.90 4852053.14 27.59
1246157.76 4852051.97 32.89
1246158.18 4852052.26 31.13
1246153.80 4852049.02 50.34
1246158.31 4852052.17 30.74
1246158.53 4852052.14 29.98
1246158.73 4852052.08 29.32
1246152.26 4852047.28 57.77
1246152.58 4852047.34 57.68
1246158.12 4852051.88 32.84
1246158.02 4852052.19 32.83
1246158.25 4852052.34 31.83
1246158.06 4852052.40 32.44
1246157.94 4852052.49 32.77
1246157.91 4852052.66 32.70
1246158.31 4852052.94 30.95
1246157.66 4852052.67 33.61
1246157.09 4852052.81 35.46
1246158.89 4852054.12 27.58
1246158.85 4852054.28 27.55
1246156.81 4852052.97 36.34
1246157.66 4852053.60 32.58
1246156.44 4852053.08 37.52
1246157.94 4852054.18 30.93
1246158.51 4852054.60 28.41
1246158.33 4852054.66 29.00
1246156.19 4852053.26 38.20
1246158.29 4852054.82 28.97
1246156.15 4852053.41 38.15
1246155.77 4852053.49 39.45
1246155.70 4852053.62 39.58
1246157.65 4852055.10 30.93
1246158.00 4852055.74 28.99
1246155.15 4852053.76 41.36
1246154.89 4852053.92 42.14
1246154.65 4852053.91 43.04
1246155.74 4852054.76 38.16
1246155.70 4852054.92 38.14
1246154.10 4852054.21 44.64
1246154.00 4852054.32 44.91
1246153.93 4852054.44 45.05
1246153.66 4852054.40 46.05
1246153.22 4852054.60 47.40
1246153.14 4852054.71 47.56
1246152.87 4852054.68 48.56
1246153.08 4852054.84 47.62
1246152.83 4852054.83 48.53
1246152.67 4852054.87 49.04
1246152.59 4852054.98 49.23
1246152.56 4852055.50 48.78
1246156.85 4852059.48 28.96
1246156.24 4852059.72 30.92
1246156.73 4852060.55 28.20
1246156.09 4852060.19 30.92
1246152.47 4852057.25 47.16
1246152.41 4852057.38 47.23
1246156.42 4852060.86 29.01
1246156.73 4852061.14 27.58
1246155.75 4852060.48 31.83
1246155.94 4852060.64 30.96
1246155.20 4852060.20 34.11
1246155.70 4852060.64 31.84
1246152.31 4852058.41 46.42
1246152.27 4852058.56 46.42
1246152.39 4852058.72 46.50
1246152.37 4852058.51 46.81
1246152.78 4852058.70 45.12
1246153.11 4852059.00 43.61
1246153.52 4852059.16 41.97
1246153.89 4852059.49 40.26
1246153.92 4852059.34 40.30
1246154.38 4852059.74 38.21
1246152.45 4852057.66 47.46
1246155.35 4852060.21 34.21
1246152.51 4852057.52 47.41
1246156.12 4852060.69 30.91
1246152.49 4852057.14 47.92
1246156.22 4852060.38 30.92
1246156.95 4852061.02 27.58
1246152.50 4852056.96 48.06
1246157.12 4852060.98 27.01
1246152.50 4852056.79 48.23
1246152.52 4852056.62 48.35
1246152.55 4852056.47 48.40
1246152.54 4852056.27 48.69
1246156.46 4852059.62 30.91
1246152.56 4852055.92 49.00
1246156.99 4852059.66 28.97
1246152.57 4852055.75 49.14
1246152.59 4852055.59 49.26
1246152.59 4852055.41 49.46
1246152.60 4852055.23 49.61
1246152.63 4852055.06 49.72
1246152.70 4852054.96 49.57
1246152.98 4852054.83 48.69
1246153.37 4852054.77 47.40
1246153.37 4852054.60 47.55
1246153.82 4852054.41 46.20
1246154.22 4852054.37 44.77
1246154.26 4852054.22 44.78
1246154.80 4852053.92 43.18
1246155.94 4852054.81 38.11
1246155.12 4852053.98 41.97
1246155.32 4852053.77 41.49
1246157.70 4852055.59 30.94
1246157.75 4852055.44 30.94
1246157.79 4852055.29 30.95
1246155.96 4852053.53 39.48
1246156.40 4852053.30 38.17
1246156.61 4852053.08 37.64
1246156.80 4852053.04 37.01
1246158.62 4852054.37 28.99
1246157.02 4852053.01 36.25
1246158.66 4852054.21 29.02
1246157.88 4852053.45 32.69
1246158.28 4852053.75 30.92
1246158.70 4852054.07 29.03
1246157.27 4852052.83 35.57
1246158.32 4852053.60 30.93
1246158.37 4852053.44 30.94
1246157.57 4852052.67 34.69
1246158.12 4852053.07 32.25
1246158.57 4852053.40 30.25
1246157.80 4852052.65 33.87
1246158.16 4852052.92 32.25
1246158.64 4852053.25 30.18
1246157.93 4852052.56 33.51
1246158.12 4852052.51 32.87
1246154.11 4852049.13 51.01
1246152.69 4852047.81 57.57
1246154.35 4852048.97 50.31
1246152.74 4852047.67 57.57
1246152.77 4852047.53 57.60
1246152.79 4852047.38 57.67
1246153.11 4852047.31 57.69
1246153.01 4852047.74 57.60
1246154.71 4852048.93 50.19
1246154.58 4852049.37 50.11
1246154.04 4852049.15 52.32
1246158.41 4852052.62 32.77
1246158.35 4852052.76 32.78
1246157.99 4852052.68 34.22
1246158.32 4852052.91 32.76
1246157.81 4852052.74 34.75
1246157.66 4852052.82 35.20
1246157.50 4852052.88 35.73
1246158.12 4852053.34 33.00
1246158.38 4852053.53 31.84
1246157.39 4852052.98 36.00
1246158.08 4852053.68 32.74
1246158.54 4852054.02 30.71
1246157.06 4852053.11 37.03
1246158.07 4852053.85 32.63
1246158.45 4852054.14 30.92
1246156.84 4852053.14 37.80
1246158.40 4852054.29 30.95
1246158.35 4852054.44 30.95
1246156.45 4852053.39 38.93
1246158.69 4852055.07 29.04
1246156.37 4852053.52 39.06
1246158.64 4852055.23 29.01
1246156.17 4852053.55 39.77
1246158.59 4852055.38 29.02
1246157.74 4852054.92 32.60
1246158.54 4852055.53 29.01
1246158.49 4852055.69 29.02
1246158.01 4852055.51 30.96
1246158.45 4852055.85 29.01
1246155.56 4852053.82 41.65
1246155.51 4852053.95 41.69
1246158.36 4852056.16 29.00
1246158.30 4852056.31 29.01
1246155.04 4852053.95 43.35
1246158.26 4852056.47 29.01
1246154.70 4852054.23 44.27
1246158.11 4852056.92 29.02
1246154.49 4852054.25 44.99
1246155.97 4852055.61 38.17
1246158.02 4852057.23 29.01
1246155.92 4852055.76 38.16
1246154.05 4852054.44 46.40
1246155.89 4852055.92 38.14
1246157.91 4852057.54 29.04
1246153.83 4852054.63 46.94
1246157.73 4852058.17 29.01
1246157.67 4852058.33 29.02
1246153.21 4852054.85 48.91
1246157.63 4852058.47 29.01
1246152.83 4852054.89 50.23
1246152.76 4852055.01 50.38
1246152.68 4852055.11 50.53
1246152.77 4852055.38 49.93
1246152.71 4852055.69 49.80
1246159.02 4852061.01 21.18
1246152.76 4852055.91 49.37
1246156.83 4852059.36 30.91
1246157.25 4852059.72 29.00
1246158.97 4852061.18 21.17
1246152.71 4852056.06 49.38
1246152.65 4852056.19 49.44
1246157.39 4852060.24 27.88
1246157.42 4852060.45 27.57
1246157.36 4852060.60 27.58
1246157.57 4852060.78 26.65
1246152.71 4852056.79 48.55
1246152.60 4852057.05 48.68
1246157.22 4852061.08 27.58
1246157.56 4852061.37 26.05
1246154.86 4852059.22 38.14
1246156.43 4852060.59 30.94
1246156.85 4852060.96 29.01
1246154.81 4852059.35 38.15
1246156.13 4852060.52 32.12
1246154.76 4852059.49 38.19
1246155.59 4852060.24 34.36
1246155.95 4852060.54 32.73
1246152.58 4852057.94 47.78
1246154.16 4852059.35 40.51
1246152.51 4852058.06 47.85
1246153.37 4852058.84 43.87
1246153.75 4852059.17 42.17
1246153.02 4852058.70 45.32
1246153.34 4852058.99 43.84
1246152.47 4852058.40 47.62
1246152.72 4852058.82 46.25
1246152.49 4852058.40 48.17
1246152.51 4852058.23 48.33
1246152.52 4852058.06 48.47
1246152.53 4852057.87 48.67
1246153.91 4852059.11 42.30
1246152.53 4852057.70 48.83
1246154.33 4852059.30 40.57
1246154.78 4852059.69 38.51
1246152.54 4852057.52 49.01
1246154.89 4852059.61 38.23
1246155.26 4852059.93 36.55
1246152.64 4852057.26 48.93
1246156.31 4852060.46 32.18
1246152.72 4852057.13 48.84
1246155.05 4852059.17 38.17
1246157.05 4852060.92 29.00
1246156.37 4852059.93 32.54
1246156.71 4852060.24 30.95
1246157.79 4852061.17 26.05
1246152.70 4852056.39 49.69
1246156.81 4852059.93 30.97
1246152.76 4852056.25 49.66
1246152.77 4852056.08 49.80
1246152.82 4852055.94 49.82
1246155.38 4852058.13 38.13
1246152.62 4852055.59 50.87
1246157.02 4852059.32 30.93
1246159.16 4852061.15 21.15
1246152.76 4852055.53 50.49
1246159.21 4852060.98 21.17
1246152.63 4852055.23 51.25
1246152.83 4852055.40 50.37
1246159.27 4852060.82 21.14
1246152.74 4852055.15 50.99
1246152.83 4852055.04 50.77
1246153.05 4852055.04 49.99
1246157.69 4852058.91 28.98
1246153.02 4852054.84 50.29
1246153.25 4852055.03 49.28
1246157.74 4852058.76 28.96
1246153.32 4852054.91 49.14
1246153.39 4852054.78 49.07
1246155.85 4852056.63 38.13
1246153.74 4852054.71 47.89
1246155.90 4852056.47 38.14
1246154.08 4852054.63 46.73
1246154.17 4852054.52 46.53
1246154.21 4852054.37 46.57
1246157.69 4852057.16 30.91
1246157.75 4852057.02 30.92
1246154.63 4852054.34 45.10
1246157.79 4852056.86 30.94
1246154.67 4852054.19 45.13
1246154.94 4852054.22 44.11
1246158.36 4852056.74 28.99
1246155.18 4852054.05 43.46
1246157.75 4852055.49 32.57
1246158.13 4852055.78 30.94
1246155.75 4852053.75 41.77
1246156.60 4852054.22 38.15
1246158.66 4852055.81 28.98
1246156.66 4852054.08 38.11
1246158.70 4852055.65 29.01
1246157.93 4852054.87 32.66
1246158.32 4852055.17 30.92
1246158.75 4852055.49 29.04
1246156.35 4852053.49 39.88
1246158.37 4852055.01 30.94
1246156.62 4852053.51 38.90
1246158.16 4852054.66 32.10
1246158.41 4852054.86 30.94
1246156.69 4852053.37 38.80
1246158.15 4852054.47 32.30
1246158.45 4852054.69 30.99
1246156.98 4852053.23 37.90
1246158.24 4852054.16 32.33
1246157.59 4852052.93 36.09
1246154.02 4852049.45 52.81
1246154.08 4852049.15 52.92
1246154.84 4852049.33 50.02
1246153.18 4852047.84 57.65
1246154.96 4852048.89 50.09
1246153.28 4852047.40 57.78
1246153.33 4852047.27 57.74
1246153.61 4852047.33 57.83
1246155.31 4852048.84 49.99
1246153.49 4852047.76 57.72
1246154.21 4852049.63 53.04
1246154.15 4852049.76 53.08
1246154.14 4852049.92 52.98
1246154.07 4852050.04 53.09
1246153.99 4852050.16 53.23
1246153.93 4852050.29 53.28
1246153.91 4852050.44 53.20
1246153.84 4852050.74 53.11
1246153.82 4852050.89 53.05
1246153.80 4852051.06 52.89
1246157.80 4852054.07 35.12
1246153.77 4852051.21 52.87
1246157.08 4852053.71 38.13
1246157.78 4852054.24 35.00
1246153.68 4852051.50 52.85
1246158.20 4852054.94 32.70
1246153.64 4852051.63 52.85
1246153.59 4852051.77 52.85
1246153.55 4852051.91 52.84
1246153.51 4852052.05 52.84
1246153.46 4852052.20 52.84
1246153.42 4852052.34 52.84
1246153.37 4852052.48 52.84
1246153.33 4852052.62 52.84
1246153.29 4852052.76 52.84
1246153.19 4852053.04 52.83
1246153.15 4852053.18 52.83
1246153.11 4852053.32 52.83
1246154.54 4852054.47 46.42
1246153.02 4852053.61 52.83
1246152.98 4852053.75 52.82
1246154.02 4852054.60 48.12
1246157.82 4852057.70 30.95
1246152.93 4852053.89 52.83
1246153.98 4852054.75 48.10
1246157.76 4852057.86 30.95
1246152.80 4852054.32 52.84
1246157.62 4852058.31 30.95
1246153.26 4852054.88 50.51
1246153.21 4852055.02 50.54
1246155.94 4852057.29 38.16
1246158.20 4852059.18 27.91
1246152.94 4852054.97 51.56
1246155.89 4852057.44 38.17
1246152.85 4852055.07 51.80
1246152.78 4852055.19 51.92
1246152.79 4852055.38 51.63
1246158.06 4852059.86 27.61
1246159.49 4852061.05 21.17
1246157.29 4852059.40 30.93
1246157.72 4852059.76 28.99
1246159.43 4852061.21 21.17
1246152.89 4852055.82 50.81
1246155.66 4852058.19 38.14
1246158.29 4852060.44 26.13
1246159.39 4852061.38 21.16
1246152.83 4852055.95 50.89
1246159.33 4852061.54 21.15
1246152.76 4852056.08 50.96
1246155.57 4852058.49 38.15
1246158.21 4852060.77 26.07
1246159.28 4852061.70 21.17
1246155.51 4852058.64 38.16
1246152.83 4852056.69 50.03
1246158.40 4852061.54 24.52
1246152.79 4852056.83 50.00
1246152.79 4852057.01 49.81
1246156.89 4852060.62 30.97
1246152.74 4852057.15 49.83
1246156.05 4852060.07 34.65
1246156.55 4852060.51 32.33
1246155.54 4852059.81 36.74
1246155.99 4852060.22 34.66
1246152.78 4852057.55 49.23
1246155.06 4852059.58 38.74
1246152.71 4852057.69 49.31
1246154.19 4852059.01 42.51
1246154.57 4852059.34 40.77
1246153.09 4852058.39 47.16
1246153.42 4852058.68 45.68
1246152.66 4852058.19 48.94
1246152.81 4852058.51 48.02
1246152.72 4852058.25 49.30
1246153.02 4852058.53 47.88
1246152.73 4852058.08 49.45
1246152.76 4852057.92 49.52
1246153.56 4852058.65 45.81
1246152.82 4852057.79 49.47
1246152.78 4852057.58 49.80
1246154.34 4852058.97 42.63
1246154.72 4852059.31 40.90
1246152.83 4852057.43 49.83
1246152.87 4852057.29 49.82
1246155.69 4852059.80 36.83
1246156.14 4852060.19 34.76
1246152.81 4852057.04 50.37
1246156.73 4852060.51 32.30
1246152.87 4852056.91 50.27
1246157.08 4852060.61 30.92
1246152.81 4852056.31 51.21
1246158.62 4852061.36 24.54
1246152.68 4852055.85 52.17
1246155.74 4852058.48 38.20
1246159.46 4852061.70 21.15
1246152.67 4852055.29 52.82
1246152.90 4852055.49 51.80
1246152.72 4852055.16 52.84
1246152.75 4852055.01 52.88
1246152.80 4852054.87 52.85
1246152.85 4852054.72 52.87
1246152.89 4852054.58 52.88
1246152.92 4852054.44 52.88
1246153.61 4852055.01 49.80
1246152.98 4852054.29 52.89
1246153.02 4852054.15 52.89
1246158.46 4852058.66 28.21
1246153.07 4852054.01 52.90
1246154.03 4852054.81 48.52
1246153.11 4852053.86 52.91
1246154.14 4852054.71 48.24
1246153.18 4852053.58 52.96
1246153.23 4852053.45 52.93
1246154.57 4852054.53 46.87
1246153.26 4852053.30 52.98
1246154.80 4852054.54 46.03
1246153.29 4852053.13 53.08
1246153.31 4852052.79 53.39
1246158.29 4852056.76 30.96
1246153.33 4852052.64 53.49
1246158.34 4852056.62 30.95
1246158.77 4852056.95 29.02
1246155.60 4852054.07 43.72
1246158.43 4852056.11 31.21
1246153.62 4852051.98 53.21
1246158.69 4852055.93 30.48
1246153.57 4852051.59 53.83
1246153.79 4852051.76 52.85
1246157.87 4852054.91 34.60
1246153.63 4852051.46 53.75
1246153.84 4852051.62 52.83
1246153.68 4852051.33 53.70
1246153.91 4852051.50 52.69
1246153.74 4852051.20 53.67
1246153.79 4852051.07 53.63
1246157.52 4852053.90 36.99
1246153.84 4852050.93 53.58
1246157.10 4852053.39 39.08
1246153.91 4852050.80 53.53
1246157.22 4852053.30 38.78
1246154.11 4852050.77 52.82
1246154.15 4852050.64 52.82
1246154.19 4852050.49 52.86
1246154.24 4852050.36 52.82
1246154.26 4852050.21 52.90
1246154.25 4852050.02 53.19
1246158.92 4852053.06 32.93
1246155.40 4852049.28 49.90
1246155.44 4852049.13 49.92
1246153.69 4852047.73 57.79
1246155.51 4852048.83 50.00
1246153.80 4852047.30 57.89
1246154.09 4852047.27 57.97
1246155.80 4852048.81 50.04
1246153.99 4852047.70 57.85
