1166913.54 4919810.32 659.49
1166913.81 4919810.37 658.41
1166913.43 4919810.50 659.88
1166913.82 4919810.56 658.28
1166913.81 4919810.75 658.23
1166914.21 4919810.82 656.63
1166910.79 4919810.43 670.44
1166914.50 4919811.24 655.24
1166914.89 4919811.30 653.69
1166910.70 4919811.14 670.45
1166910.62 4919811.68 670.46
1166910.56 4919812.21 670.48
1166911.08 4919812.31 668.36
1166910.55 4919812.39 670.46
1166910.51 4919812.57 670.48
1166909.08 4919813.90 675.56
1166909.43 4919813.85 675.56
1166910.85 4919812.70 670.47
1166910.91 4919812.16 670.49
1166907.66 4919811.37 683.81
1166910.94 4919811.99 670.47
1166910.99 4919811.63 670.45
1166911.05 4919811.10 670.45
1166915.53 4919811.88 652.29
1166913.86 4919810.46 659.58
1166915.27 4919810.68 653.89
1166913.85 4919810.27 659.70
1166914.17 4919810.32 658.41
1166913.33 4919810.00 661.93
1166911.25 4919809.50 670.45
1166912.74 4919809.54 664.50
1166912.68 4919809.35 664.85
1166914.70 4919809.65 656.65
1166915.02 4919809.69 655.38
1166911.31 4919808.97 670.43
1166912.52 4919809.14 665.58
1166911.67 4919808.66 669.18
1166910.63 4919808.15 673.53
1166910.37 4919807.77 674.79
1166910.36 4919807.58 674.93
1166910.34 4919807.39 675.09
1166910.53 4919807.42 674.32
1166911.55 4919807.01 670.44
1166910.52 4919806.54 674.77
1166910.56 4919806.36 674.72
1166910.52 4919806.18 674.93
1166910.49 4919805.81 675.23
1166911.68 4919805.94 670.45
1166910.48 4919805.64 675.35
1166910.64 4919805.30 674.90
1166910.69 4919805.13 674.81
1166910.66 4919804.95 674.99
1166910.77 4919804.78 674.67
1166911.29 4919804.65 672.64
1166911.57 4919804.68 671.51
1166911.90 4919804.71 670.20
1166912.24 4919804.56 668.91
1166912.66 4919804.23 667.36
1166911.92 4919803.99 670.44
1166914.95 4919804.22 658.31
1166911.97 4919803.63 670.44
1166913.61 4919803.75 663.87
1166915.41 4919803.88 656.64
1166914.12 4919803.42 661.98
1166914.70 4919803.10 659.85
1166915.28 4919802.76 657.73
1166915.93 4919802.42 655.24
1166916.16 4919802.24 654.45
1166916.75 4919801.89 652.28
1166912.25 4919801.32 670.46
1166912.26 4919801.14 670.48
1166912.53 4919800.98 669.51
1166912.31 4919800.79 670.47
1166912.54 4919800.80 669.52
1166912.35 4919800.43 670.47
1166911.16 4919799.51 675.66
1166911.39 4919799.43 675.73
1166912.58 4919800.52 670.49
1166912.55 4919800.70 670.48
1166912.58 4919800.87 670.31
1166912.53 4919801.06 670.41
1166912.49 4919801.24 670.48
1166912.47 4919801.41 670.48
1166917.20 4919801.81 651.47
1166917.50 4919801.81 650.26
1166916.86 4919801.97 652.76
1166917.48 4919801.99 650.27
1166916.59 4919802.14 653.71
1166916.98 4919802.16 652.17
1166909.20 4919802.11 683.15
1166912.37 4919802.29 670.47
1166915.96 4919802.49 656.05
1166915.78 4919802.66 656.73
1166915.34 4919803.01 658.29
1166914.89 4919803.17 659.97
1166915.29 4919803.19 658.39
1166914.45 4919803.51 661.61
1166913.83 4919803.64 664.01
1166915.66 4919803.78 656.65
1166912.20 4919803.71 670.45
1166913.79 4919803.82 664.07
1166912.17 4919803.88 670.49
1166913.32 4919803.97 665.86
1166915.20 4919804.12 658.31
1166913.17 4919804.14 666.40
1166915.85 4919804.36 655.62
1166912.87 4919804.30 667.51
1166915.15 4919804.49 658.31
1166912.46 4919804.44 669.07
1166912.51 4919804.63 668.76
1166915.12 4919804.86 658.27
1166910.74 4919804.83 675.75
1166910.97 4919804.86 674.81
1166910.68 4919805.01 675.87
1166910.69 4919805.18 675.76
1166911.22 4919805.41 673.54
1166915.42 4919805.82 656.63
1166911.20 4919805.58 673.52
1166910.74 4919805.72 675.27
1166910.69 4919805.89 675.41
1166910.51 4919806.23 675.96
1166910.51 4919806.40 675.89
1166910.52 4919806.58 675.75
1166911.84 4919806.73 670.44
1166910.54 4919806.76 675.62
1166910.57 4919806.94 675.36
1166910.58 4919807.12 675.26
1166910.48 4919807.46 675.49
1166910.96 4919807.52 673.53
1166915.14 4919808.05 656.66
1166910.93 4919807.70 673.58
1166910.38 4919807.99 675.64
1166910.60 4919808.19 674.63
1166911.00 4919808.24 673.02
1166911.99 4919808.56 668.95
1166914.63 4919808.92 658.29
1166911.98 4919808.74 668.92
1166912.36 4919808.80 667.37
1166912.98 4919808.88 664.87
1166911.56 4919809.05 670.44
1166912.51 4919809.18 666.58
1166912.92 4919809.43 664.83
1166915.29 4919809.78 655.23
1166911.51 4919809.40 670.46
1166913.03 4919809.62 664.31
1166913.62 4919810.09 661.75
1166914.15 4919810.54 659.41
1166914.52 4919810.79 657.79
1166911.36 4919810.63 670.44
1166915.27 4919811.49 654.50
1166915.84 4919811.59 652.19
1166911.32 4919810.99 670.45
1166916.69 4919811.93 648.65
1166915.78 4919811.96 652.26
1166916.66 4919812.12 648.64
1166916.08 4919812.21 650.94
1166916.65 4919812.31 648.61
1166916.12 4919812.40 650.70
1166916.64 4919812.50 648.53
1166911.23 4919811.70 670.46
1166916.63 4919812.69 648.51
1166911.21 4919811.88 670.46
1166911.19 4919812.05 670.47
1166911.57 4919812.31 668.82
1166911.15 4919812.41 670.47
1166911.12 4919812.59 670.47
1166909.70 4919813.75 675.58
1166909.93 4919813.77 675.64
1166911.36 4919812.79 670.46
1166911.37 4919812.62 670.47
1166911.41 4919812.44 670.46
1166911.51 4919812.28 670.09
1166911.47 4919812.09 670.39
1166916.78 4919813.08 648.75
1166911.49 4919811.72 670.45
1166916.38 4919812.24 650.75
1166916.88 4919812.33 648.73
1166916.06 4919811.98 652.19
1166916.90 4919812.13 648.74
1166911.56 4919811.01 670.53
1166916.93 4919811.95 648.72
1166911.61 4919810.83 670.45
1166915.47 4919811.50 654.73
1166914.24 4919810.72 660.00
1166914.82 4919810.81 657.64
1166914.47 4919810.57 659.18
1166914.69 4919810.61 658.28
1166914.29 4919810.36 659.98
1166913.94 4919810.11 661.53
1166915.14 4919810.30 656.66
1166915.86 4919810.41 653.71
1166913.79 4919809.90 662.17
1166911.80 4919809.23 670.44
1166912.85 4919809.20 666.27
1166915.60 4919809.42 655.23
1166912.32 4919808.77 668.60
1166912.20 4919808.56 669.15
1166915.52 4919809.03 655.76
1166910.47 4919807.97 676.37
1166910.47 4919807.79 676.44
1166915.40 4919808.25 656.63
1166910.57 4919807.09 676.39
1166910.55 4919806.92 676.56
1166910.53 4919806.74 676.74
1166910.51 4919806.56 676.87
1166910.66 4919806.04 676.58
1166910.70 4919805.87 676.48
1166910.74 4919805.70 676.37
1166911.45 4919805.77 673.52
1166910.71 4919805.52 676.60
1166910.69 4919805.34 676.76
1166910.70 4919805.17 676.85
1166910.78 4919805.00 676.60
1166910.97 4919804.84 675.93
1166911.21 4919804.86 674.95
1166912.66 4919804.63 669.26
1166916.00 4919804.92 655.85
1166915.42 4919804.69 658.28
1166912.46 4919803.90 670.45
1166914.11 4919803.83 663.92
1166915.53 4919803.75 658.31
1166914.56 4919803.50 662.32
1166915.51 4919803.38 658.56
1166915.98 4919803.41 656.68
1166916.72 4919803.46 653.70
1166915.14 4919803.17 660.14
1166915.44 4919803.18 658.93
1166909.52 4919802.11 683.01
1166912.65 4919802.28 670.47
1166916.45 4919802.50 655.25
1166916.96 4919802.15 653.38
1166917.29 4919801.97 652.17
1166917.75 4919801.99 650.35
1166917.50 4919801.79 651.43
1166917.73 4919801.81 650.47
1166912.78 4919801.22 670.47
1166912.80 4919801.04 670.48
1166917.87 4919801.23 650.25
1166912.83 4919800.87 670.47
1166917.88 4919801.04 650.25
1166912.85 4919800.69 670.48
1166912.87 4919800.51 670.48
1166911.04 4919799.74 678.11
1166911.12 4919799.22 678.11
1166911.14 4919799.04 678.08
1166911.16 4919798.87 678.11
1166911.18 4919798.69 678.12
1166911.38 4919798.77 678.23
1166911.35 4919798.93 678.24
1166911.32 4919799.10 678.27
1166911.27 4919799.28 678.42
1166911.22 4919799.45 678.50
1166911.18 4919799.62 678.57
1166911.15 4919799.80 678.59
1166911.23 4919799.97 678.21
1166911.21 4919800.15 678.17
1166911.20 4919800.33 678.16
1166911.17 4919800.50 678.16
1166911.16 4919800.67 678.14
1166913.07 4919800.74 670.48
1166911.15 4919800.83 678.14
1166918.11 4919801.09 650.26
1166911.12 4919801.01 678.13
1166911.10 4919801.18 678.13
1166911.08 4919801.35 678.13
1166911.06 4919801.53 678.13
1166911.03 4919801.70 678.15
1166911.00 4919801.87 678.21
1166910.97 4919802.05 678.24
1166909.77 4919802.15 682.96
1166910.96 4919802.22 678.18
1166910.96 4919802.40 678.12
1166910.91 4919802.75 678.11
1166910.89 4919802.92 678.11
1166910.87 4919803.09 678.12
1166910.86 4919803.27 678.11
1166910.83 4919803.44 678.11
1166910.81 4919803.61 678.11
1166910.79 4919803.79 678.11
1166910.74 4919804.13 678.10
1166913.29 4919804.34 667.86
1166910.70 4919804.47 678.10
1166912.86 4919804.66 669.42
1166910.68 4919804.65 678.11
1166911.91 4919804.76 673.18
1166912.19 4919804.78 672.05
1166910.67 4919804.82 678.08
1166911.17 4919804.87 676.06
1166911.42 4919804.89 675.07
1166910.65 4919805.00 678.07
1166910.88 4919805.02 677.15
1166910.63 4919805.17 678.05
1166910.82 4919805.19 677.30
1166910.61 4919805.35 678.05
1166910.81 4919805.36 677.23
1166910.66 4919805.53 677.78
1166913.87 4919805.85 664.83
1166910.68 4919805.70 677.60
1166913.85 4919806.03 664.82
1166910.69 4919805.89 677.46
1166911.67 4919805.98 673.53
1166912.39 4919806.42 670.46
1166915.80 4919806.80 656.64
1166910.76 4919806.41 676.93
1166913.75 4919806.76 664.83
1166915.78 4919806.99 656.65
1166910.71 4919806.58 677.05
1166910.50 4919807.09 677.64
1166911.51 4919807.21 673.58
1166913.66 4919807.48 664.82
1166910.51 4919807.27 677.50
1166913.65 4919807.66 664.80
1166915.26 4919807.87 658.29
1166910.55 4919807.62 677.20
1166913.60 4919808.02 664.82
1166910.54 4919807.80 677.12
1166910.87 4919808.20 675.60
1166911.24 4919808.25 674.12
1166911.65 4919808.31 672.45
1166912.40 4919808.59 669.32
1166915.13 4919808.97 658.29
1166913.14 4919809.25 666.05
1166912.04 4919809.27 670.46
1166912.01 4919809.44 670.44
1166913.64 4919809.68 663.86
1166914.00 4919809.93 662.30
1166914.49 4919810.37 660.11
1166915.34 4919810.51 656.66
1166915.02 4919810.85 657.79
1166916.40 4919811.07 652.19
1166914.44 4919810.94 660.05
1166915.09 4919811.05 657.40
1166915.49 4919811.30 655.68
1166911.84 4919810.87 670.46
1166916.01 4919811.77 653.38
1166917.16 4919811.97 648.72
1166916.29 4919812.01 652.18
1166917.12 4919812.16 648.75
1166916.64 4919812.26 650.66
1166917.09 4919812.35 648.80
1166917.04 4919812.53 648.91
1166911.72 4919811.75 670.47
1166908.61 4919811.35 683.07
1166911.70 4919811.93 670.47
1166916.99 4919812.91 648.91
1166911.68 4919812.09 670.49
1166911.65 4919812.28 670.50
1166911.64 4919812.46 670.49
1166911.61 4919812.64 670.47
1166911.59 4919812.81 670.48
1166910.16 4919813.79 675.69
1166909.84 4919813.86 678.07
1166909.85 4919813.69 678.09
1166909.88 4919813.52 678.09
1166909.90 4919813.34 678.09
1166909.92 4919813.17 678.10
1166909.94 4919812.99 678.10
1166909.96 4919812.82 678.10
1166909.98 4919812.65 678.10
1166910.00 4919812.48 678.10
1166910.03 4919812.30 678.10
1166911.89 4919812.67 670.50
1166910.05 4919812.13 678.10
1166911.92 4919812.49 670.49
1166910.09 4919811.78 678.09
1166908.92 4919811.38 682.95
1166910.11 4919811.62 678.10
1166910.14 4919811.44 678.10
1166910.15 4919811.27 678.10
1166910.18 4919811.10 678.11
1166910.19 4919810.93 678.12
1166910.21 4919810.75 678.15
1166910.24 4919810.57 678.11
1166910.27 4919810.40 678.12
1166910.28 4919810.23 678.11
1166910.30 4919810.05 678.11
1166910.33 4919809.88 678.11
1166910.34 4919809.71 678.12
1166910.37 4919809.53 678.13
1166910.38 4919809.36 678.13
1166910.41 4919809.19 678.13
1166910.46 4919808.49 678.26
1166910.46 4919808.32 678.36
1166910.50 4919808.15 678.28
1166911.60 4919808.30 673.84
1166912.03 4919808.36 672.09
1166910.55 4919807.97 678.18
1166910.93 4919808.03 676.66
1166910.53 4919807.80 678.34
1166910.54 4919807.62 678.40
1166910.55 4919807.45 678.42
1166910.57 4919807.28 678.43
1166910.59 4919807.10 678.45
1166915.55 4919807.71 658.40
1166915.99 4919807.77 656.62
1166910.65 4919806.93 678.28
1166912.60 4919807.17 670.42
1166915.59 4919807.54 658.33
1166910.69 4919806.76 678.23
1166911.84 4919806.90 673.59
1166915.60 4919807.35 658.37
1166910.73 4919806.59 678.15
1166911.87 4919806.72 673.53
1166915.62 4919807.17 658.41
1166910.77 4919806.42 678.09
1166915.63 4919806.98 658.44
1166910.80 4919806.25 678.06
1166911.92 4919806.37 673.52
1166915.65 4919806.80 658.44
1166915.68 4919806.61 658.42
1166912.73 4919806.11 670.44
1166915.72 4919806.43 658.32
1166910.81 4919805.55 678.35
1166915.74 4919806.06 658.44
1166916.20 4919806.11 656.61
1166910.83 4919805.38 678.35
1166915.77 4919805.87 658.44
1166910.83 4919805.20 678.44
1166910.89 4919805.03 678.30
1166910.97 4919804.87 678.07
1166911.41 4919804.91 676.25
1166913.10 4919804.70 669.65
1166915.91 4919804.94 658.34
1166910.90 4919804.16 678.68
1166913.53 4919804.38 668.08
1166916.37 4919804.61 656.65
1166910.90 4919803.81 678.87
1166916.42 4919804.24 656.67
1166910.90 4919803.63 678.98
1166914.43 4919803.90 664.79
1166916.79 4919804.08 655.23
1166910.89 4919803.46 679.08
1166913.03 4919803.61 670.48
1166916.83 4919803.89 655.20
1166910.88 4919803.29 679.20
1166911.16 4919803.31 678.08
1166915.00 4919803.57 662.61
1166916.49 4919803.68 656.64
1166911.17 4919803.13 678.12
1166915.47 4919803.43 660.86
1166911.19 4919802.97 678.11
1166915.60 4919803.26 660.41
1166916.24 4919802.92 658.03
1166913.17 4919802.56 670.45
1166913.21 4919802.20 670.49
1166910.98 4919801.72 679.58
1166918.30 4919802.08 650.27
1166911.02 4919801.56 679.49
1166911.37 4919801.57 678.10
1166918.28 4919801.90 650.41
1166911.06 4919801.38 679.42
1166913.29 4919801.49 670.48
1166911.11 4919801.21 679.34
1166911.19 4919800.87 679.18
1166913.36 4919800.95 670.48
1166918.42 4919801.15 650.25
1166911.23 4919800.70 679.11
1166913.38 4919800.78 670.48
1166913.43 4919800.42 670.48
1166911.54 4919800.19 678.10
1166911.41 4919800.01 678.75
1166911.58 4919799.84 678.11
1166911.61 4919799.65 678.13
1166911.67 4919799.12 678.11
1166911.69 4919798.95 678.13
1166911.72 4919798.78 678.11
1166912.01 4919798.91 678.11
1166911.98 4919799.08 678.11
1166911.96 4919799.25 678.11
1166911.92 4919799.60 678.11
1166911.87 4919799.95 678.13
1166911.84 4919800.30 678.10
1166913.69 4919800.72 670.48
1166913.68 4919800.89 670.48
1166918.73 4919801.07 650.26
1166913.65 4919801.07 670.50
1166918.71 4919801.26 650.25
1166911.73 4919801.15 678.11
1166913.63 4919801.23 670.48
1166913.61 4919801.41 670.49
1166918.66 4919801.63 650.26
1166913.59 4919801.59 670.47
1166918.63 4919801.81 650.27
1166918.61 4919802.00 650.26
1166911.65 4919801.84 678.09
1166918.58 4919802.19 650.27
1166911.06 4919802.68 680.00
1166913.45 4919802.83 670.42
1166911.03 4919802.85 680.07
1166910.98 4919803.02 680.16
1166910.95 4919803.19 680.23
1166915.62 4919803.51 661.44
1166910.90 4919803.36 680.30
1166913.35 4919803.54 670.46
1166915.47 4919803.70 661.92
1166914.25 4919804.16 666.57
1166914.57 4919804.17 665.28
1166915.87 4919804.28 660.06
1166913.25 4919804.43 670.44
1166913.79 4919804.48 668.26
1166911.31 4919804.61 678.06
1166913.37 4919804.81 669.77
1166911.28 4919804.79 678.11
1166912.14 4919804.86 674.66
1166912.40 4919804.89 673.61
1166912.68 4919804.92 672.48
1166911.17 4919804.95 678.42
1166911.41 4919804.97 677.46
1166911.67 4919804.99 676.42
1166910.88 4919805.10 679.53
1166911.18 4919805.13 678.34
1166910.85 4919805.26 679.60
1166910.84 4919805.44 679.52
1166911.21 4919805.48 678.03
1166910.85 4919805.62 679.43
1166913.06 4919805.85 670.44
1166915.95 4919806.15 658.81
1166915.96 4919806.52 658.60
1166911.11 4919806.17 678.09
1166915.97 4919806.70 658.49
1166910.88 4919806.33 678.93
1166912.22 4919806.47 673.54
1166915.98 4919806.90 658.30
1166910.84 4919806.49 679.00
1166912.20 4919806.66 673.52
1166915.92 4919807.08 658.47
1166910.80 4919806.66 679.08
1166910.72 4919807.00 679.22
1166915.89 4919807.64 658.30
1166910.68 4919807.17 679.30
1166912.87 4919807.45 670.43
1166915.87 4919807.82 658.29
1166912.84 4919807.63 670.47
1166914.24 4919807.80 664.83
1166915.84 4919808.01 658.30
1166910.95 4919807.56 678.07
1166915.83 4919808.19 658.29
1166910.63 4919807.86 679.18
1166910.91 4919807.90 678.03
1166911.31 4919807.96 676.42
1166912.67 4919809.04 670.44
1166915.67 4919809.49 658.27
1166916.07 4919809.55 656.66
1166915.63 4919809.86 658.28
1166916.03 4919809.92 656.66
1166914.53 4919809.87 662.67
1166915.60 4919810.04 658.27
1166916.00 4919810.10 656.65
1166910.46 4919809.42 679.08
1166910.71 4919809.46 678.07
1166912.59 4919809.75 670.44
1166915.18 4919810.16 659.90
1166910.42 4919809.59 679.18
1166915.00 4919810.33 660.55
1166910.37 4919809.77 679.26
1166915.13 4919810.54 659.89
1166910.32 4919809.93 679.38
1166910.64 4919809.99 678.08
1166915.64 4919810.98 657.64
1166912.47 4919810.64 670.46
1166915.78 4919811.21 656.97
1166916.19 4919811.47 655.26
1166910.35 4919810.64 678.91
1166917.76 4919811.93 648.73
1166912.41 4919811.17 670.45
1166917.73 4919812.12 648.75
1166917.71 4919812.31 648.74
1166917.69 4919812.50 648.76
1166910.11 4919811.65 679.35
1166910.42 4919811.70 678.09
1166910.12 4919811.83 679.23
1166917.60 4919813.26 648.74
1166910.12 4919812.01 679.15
1166910.12 4919812.19 679.07
1166910.11 4919812.36 679.02
1166910.11 4919812.54 678.93
1166910.11 4919812.71 678.85
1166910.11 4919812.89 678.75
1166910.12 4919813.07 678.65
1166910.13 4919813.25 678.47
1166910.18 4919813.44 678.19
1166910.15 4919813.79 678.14
1166910.14 4919813.96 678.12
1166910.11 4919814.13 678.13
1166910.09 4919814.31 678.15
1166910.42 4919814.11 678.09
1166910.45 4919813.93 678.11
1166910.51 4919813.41 678.10
1166910.53 4919813.24 678.09
1166910.60 4919812.72 678.09
1166912.51 4919812.75 670.46
1166912.54 4919812.57 670.45
1166912.56 4919812.39 670.47
1166917.89 4919813.41 648.72
1166910.72 4919811.85 678.07
1166912.57 4919812.21 670.48
1166917.99 4919812.65 648.71
1166912.70 4919811.32 670.45
1166918.03 4919812.26 648.72
1166918.06 4919812.07 648.74
1166910.43 4919810.56 679.86
1166910.43 4919810.38 679.96
1166910.43 4919810.04 680.11
1166910.44 4919809.86 680.19
1166910.44 4919809.69 680.26
1166910.45 4919809.51 680.34
1166910.45 4919809.33 680.41
1166910.45 4919809.16 680.50
1166915.28 4919809.90 660.90
1166910.45 4919808.98 680.58
1166914.26 4919809.56 665.10
1166910.46 4919808.81 680.66
1166915.27 4919809.52 661.14
1166910.45 4919808.63 680.75
1166913.76 4919809.11 667.33
1166911.16 4919808.39 678.06
1166913.33 4919808.69 669.26
1166915.23 4919808.96 661.55
1166912.00 4919808.32 674.75
1166912.40 4919808.38 673.14
1166910.83 4919807.99 679.57
1166911.35 4919808.06 677.49
1166910.68 4919807.78 680.26
1166910.69 4919807.61 680.32
1166915.21 4919808.21 662.05
1166913.16 4919807.76 670.43
1166915.20 4919808.03 662.14
1166911.28 4919807.34 678.08
1166915.19 4919807.84 662.29
1166911.32 4919807.17 678.06
1166914.58 4919807.58 664.85
1166915.18 4919807.66 662.43
1166912.48 4919806.96 673.54
1166915.16 4919807.27 662.70
1166910.80 4919806.58 680.41
1166915.16 4919807.09 662.81
1166910.82 4919806.40 680.41
1166910.82 4919806.22 680.52
1166910.80 4919806.05 680.69
1166910.80 4919805.87 680.78
1166910.79 4919805.71 680.88
1166911.03 4919805.74 679.90
1166911.49 4919805.78 678.05
1166910.79 4919805.53 680.98
1166915.10 4919805.97 663.57
1166910.81 4919805.36 680.98
1166915.10 4919805.79 663.69
1166910.92 4919805.19 680.63
1166910.88 4919804.85 680.99
1166910.91 4919804.67 680.92
1166910.95 4919804.50 680.84
1166911.64 4919804.56 678.07
1166913.61 4919804.74 670.15
1166911.03 4919804.17 680.70
1166914.42 4919804.44 667.08
1166914.52 4919804.27 666.77
1166911.73 4919803.87 678.08
1166914.83 4919804.11 665.60
1166911.75 4919803.70 678.08
1166915.04 4919803.95 664.87
1166915.54 4919803.80 662.95
1166913.68 4919803.48 670.47
1166913.71 4919803.31 670.50
1166916.33 4919803.49 659.96
1166913.77 4919802.95 670.44
1166911.88 4919802.66 678.10
1166910.71 4919802.24 682.95
1166911.69 4919802.30 679.03
1166911.95 4919802.14 678.08
1166911.97 4919801.97 678.09
1166913.89 4919801.88 670.46
1166913.93 4919801.53 670.47
1166913.96 4919801.35 670.49
1166912.10 4919800.93 678.12
1166914.03 4919800.82 670.48
1166912.14 4919800.58 678.09
1166914.05 4919800.65 670.48
1166912.23 4919799.87 678.10
1166912.26 4919799.71 678.10
1166912.27 4919799.53 678.12
1166912.65 4919799.54 676.60
1166912.68 4919799.36 676.59
1166912.32 4919799.17 678.11
1166912.34 4919799.00 678.09
1166912.36 4919798.83 678.11
1166912.61 4919798.90 678.11
1166912.58 4919799.08 678.13
1166912.57 4919799.25 678.10
1166912.68 4919799.42 677.53
1166912.52 4919799.59 678.10
1166912.50 4919799.76 678.11
1166912.48 4919799.94 678.10
1166914.31 4919800.51 670.50
1166912.39 4919800.62 678.10
1166914.30 4919800.68 670.48
1166914.27 4919800.86 670.48
1166912.35 4919800.96 678.11
1166914.26 4919801.04 670.47
1166914.23 4919801.22 670.47
1166914.21 4919801.40 670.47
1166914.14 4919801.93 670.47
1166912.15 4919802.52 678.13
1166914.01 4919803.00 670.45
1166916.58 4919803.35 660.03
1166913.96 4919803.35 670.48
1166911.98 4919803.91 678.09
1166915.24 4919804.17 664.96
1166915.18 4919804.35 665.11
1166914.56 4919804.47 667.50
1166913.80 4919804.78 670.39
1166912.15 4919804.98 676.87
1166912.38 4919805.00 675.93
1166912.62 4919805.03 674.97
1166911.04 4919805.05 681.26
1166911.38 4919805.09 679.89
1166911.68 4919805.11 678.68
1166911.01 4919805.22 681.31
1166910.97 4919805.39 681.36
1166910.97 4919805.57 681.27
1166910.96 4919805.74 681.21
1166910.95 4919805.91 681.17
1166910.93 4919806.08 681.17
1166910.91 4919806.25 681.17
1166910.89 4919806.42 681.17
1166910.86 4919806.59 681.17
1166910.85 4919806.77 681.16
1166910.81 4919806.92 681.19
1166910.75 4919807.10 681.36
1166910.71 4919807.26 681.42
1166910.72 4919807.44 681.31
1166910.72 4919807.61 681.25
1166910.71 4919807.79 681.19
1166910.71 4919807.96 681.12
1166911.68 4919808.10 677.20
1166910.70 4919808.14 681.04
1166912.32 4919808.36 674.49
1166912.73 4919808.43 672.82
1166913.76 4919808.74 668.54
1166914.52 4919808.85 665.47
1166911.39 4919808.59 678.06
1166913.27 4919808.86 670.45
1166914.09 4919809.15 667.03
1166914.41 4919809.39 665.63
1166914.52 4919809.59 665.07
1166911.30 4919809.28 678.09
1166913.13 4919809.92 670.46
1166915.72 4919810.33 659.97
1166913.12 4919810.11 670.44
1166915.67 4919810.51 660.04
1166911.17 4919810.31 678.08
1166913.03 4919810.63 670.49
1166915.56 4919811.24 660.10
1166912.96 4919811.35 670.45
1166911.06 4919811.18 678.09
1166909.84 4919811.30 682.88
1166912.88 4919811.86 670.45
1166912.87 4919812.05 670.45
1166910.96 4919812.04 678.07
1166912.80 4919812.58 670.46
1166912.77 4919812.76 670.47
1166910.86 4919812.74 678.10
1166910.79 4919813.25 678.09
1166910.75 4919813.59 678.10
1166910.72 4919813.77 678.11
1166911.23 4919813.89 676.04
1166910.71 4919813.94 678.09
1166910.68 4919814.12 678.10
1166910.67 4919814.29 678.07
1166910.99 4919814.20 678.08
1166911.02 4919814.03 678.08
1166911.03 4919813.85 678.10
1166911.43 4919813.76 676.54
1166911.08 4919813.50 678.09
1166911.13 4919813.16 678.08
1166911.22 4919812.47 678.08
1166913.08 4919812.85 670.46
1166913.10 4919812.67 670.46
1166911.26 4919812.12 678.09
1166913.13 4919812.49 670.46
1166913.18 4919812.14 670.45
1166910.13 4919811.39 682.95
1166913.19 4919811.95 670.47
1166913.23 4919811.78 670.45
1166913.24 4919811.60 670.45
1166911.41 4919810.92 678.07
1166911.01 4919810.67 679.81
1166911.46 4919810.57 678.07
1166913.40 4919810.37 670.45
1166913.44 4919810.19 670.43
1166911.66 4919809.01 678.07
1166911.69 4919808.84 678.06
1166913.15 4919808.52 672.41
1166913.63 4919808.59 670.50
1166912.06 4919808.18 676.91
1166912.41 4919808.23 675.51
1166911.08 4919807.88 681.00
1166910.75 4919807.65 682.45
1166910.84 4919807.15 682.33
1166913.93 4919807.53 669.81
1166910.93 4919806.81 682.16
1166912.01 4919806.42 678.06
1166913.85 4919806.63 670.62
1166913.82 4919806.45 670.80
1166914.34 4919806.51 668.70
1166913.80 4919806.27 670.95
1166914.00 4919806.29 670.15
1166914.40 4919806.33 668.56
1166910.99 4919805.61 682.53
1166911.34 4919805.65 681.14
1166914.11 4919805.94 669.91
1166911.34 4919805.13 681.38
1166911.66 4919805.16 680.08
1166912.91 4919804.93 675.24
1166913.16 4919804.96 674.23
1166913.43 4919804.98 673.15
1166913.75 4919804.83 671.93
1166914.10 4919804.86 670.53
1166914.12 4919804.68 670.55
1166914.20 4919804.15 670.50
1166914.25 4919803.80 670.48
1166914.26 4919803.62 670.50
1166914.27 4919803.44 670.58
1166914.28 4919803.27 670.63
1166914.33 4919803.09 670.52
1166914.29 4919802.91 670.76
1166914.37 4919802.73 670.52
1166912.09 4919802.41 679.78
1166912.51 4919802.43 678.09
1166914.41 4919802.55 670.48
1166911.28 4919802.19 683.12
1166914.43 4919802.37 670.48
1166914.45 4919802.20 670.51
1166914.42 4919802.02 670.70
1166914.41 4919801.84 670.87
1166914.36 4919801.65 671.13
1166914.40 4919801.49 671.09
1166914.44 4919801.30 670.98
1166914.49 4919801.13 670.87
1166912.71 4919800.88 678.09
1166914.55 4919800.96 670.74
1166912.73 4919800.71 678.12
1166914.63 4919800.78 670.48
1166912.83 4919799.84 678.13
1166912.86 4919799.67 678.12
1166912.91 4919799.33 678.12
1166912.93 4919799.14 678.11
1166912.96 4919798.97 678.12
1166913.22 4919798.99 678.11
1166913.18 4919799.35 678.10
1166913.13 4919799.70 678.12
1166913.10 4919799.87 678.11
1166913.00 4919800.72 678.10
1166912.98 4919800.90 678.10
1166915.50 4919801.53 667.74
1166914.44 4919802.20 671.60
1166912.35 4919802.43 679.83
1166914.35 4919802.55 671.79
1166912.75 4919802.64 678.09
1166914.28 4919802.72 671.96
1166914.24 4919802.89 672.05
1166914.19 4919803.07 672.16
1166914.16 4919803.25 672.17
1166914.20 4919803.43 671.94
1166914.22 4919803.60 671.76
1166914.24 4919803.79 671.61
1166912.57 4919804.01 678.12
1166912.55 4919804.18 678.09
1166912.54 4919804.36 678.07
1166913.14 4919804.94 675.41
1166913.39 4919804.97 674.40
1166913.65 4919804.99 673.35
1166912.23 4919805.03 678.96
1166912.65 4919805.07 677.27
1166911.58 4919805.14 681.52
1166911.90 4919805.17 680.22
1166911.18 4919805.27 683.04
1166911.03 4919805.43 683.54
1166914.05 4919805.74 671.36
1166913.99 4919805.91 671.47
1166911.07 4919805.95 683.13
1166910.92 4919806.11 683.61
1166910.91 4919806.28 683.60
1166910.92 4919806.46 683.49
1166910.92 4919806.62 683.38
1166913.75 4919806.96 671.94
1166910.93 4919806.80 683.27
1166913.75 4919807.14 671.80
1166913.79 4919807.68 671.41
1166910.83 4919807.66 683.21
1166910.95 4919807.84 682.64
1166911.40 4919807.90 680.80
1166912.40 4919808.22 676.65
1166912.74 4919808.27 675.25
1166913.81 4919808.76 670.75
1166913.76 4919808.94 670.88
1166911.96 4919808.86 678.08
1166913.82 4919809.13 670.50
1166911.94 4919809.03 678.08
1166913.81 4919809.31 670.47
1166913.77 4919809.66 670.47
1166913.74 4919809.84 670.49
1166913.70 4919810.02 670.56
1166913.66 4919810.38 670.55
1166913.64 4919810.55 670.56
1166913.62 4919810.73 670.50
1166913.51 4919811.44 670.56
1166910.41 4919811.22 683.06
1166913.49 4919811.79 670.51
1166913.46 4919811.97 670.52
1166913.42 4919812.15 670.60
1166913.42 4919812.33 670.50
1166913.40 4919812.51 670.49
1166911.52 4919812.31 678.08
1166913.37 4919812.68 670.50
1166911.49 4919812.48 678.13
1166913.35 4919812.86 670.49
1166913.33 4919813.04 670.49
1166911.38 4919813.35 678.10
1166911.36 4919813.53 678.09
1166911.44 4919813.72 677.67
1166911.27 4919814.22 678.09
1166911.56 4919814.31 678.10
1166911.58 4919814.13 678.09
1166911.66 4919813.61 678.08
1166911.68 4919813.43 678.09
1166911.70 4919813.26 678.09
1166911.79 4919812.57 678.08
1166911.81 4919812.39 678.12
1166913.77 4919812.24 670.38
1166910.67 4919811.30 683.19
1166913.61 4919811.84 671.21
1166913.61 4919811.66 671.33
1166913.60 4919811.47 671.45
1166911.60 4919810.76 679.82
1166913.59 4919811.11 671.69
1166913.57 4919810.75 671.93
1166913.57 4919810.57 672.05
1166913.56 4919810.38 672.17
1166913.57 4919810.21 672.27
1166913.55 4919809.85 672.49
1166913.55 4919809.66 672.61
1166912.23 4919809.27 678.06
1166912.24 4919809.10 678.08
1166912.30 4919808.75 678.06
1166912.79 4919808.30 676.33
1166913.13 4919808.35 674.95
1166910.89 4919807.69 684.21
1166910.89 4919807.52 684.33
1166910.89 4919807.35 684.39
1166912.46 4919807.55 678.06
1166913.58 4919807.70 673.50
1166910.89 4919807.17 684.52
1166913.60 4919807.52 673.51
1166910.88 4919806.99 684.64
1166910.88 4919806.82 684.75
1166911.75 4919806.93 681.19
1166910.87 4919806.65 684.85
1166913.69 4919806.99 673.45
1166910.86 4919806.48 684.97
1166913.69 4919806.81 673.52
1166913.72 4919806.64 673.54
1166911.07 4919805.81 684.48
1166911.12 4919805.64 684.38
1166912.68 4919805.81 678.05
1166911.07 4919805.47 684.67
1166911.18 4919805.31 684.29
1166912.52 4919805.09 679.10
1166912.92 4919805.13 677.48
1166913.41 4919805.00 675.62
1166913.66 4919805.02 674.61
1166913.98 4919804.88 673.39
1166912.85 4919804.60 678.06
1166914.02 4919804.70 673.29
1166914.13 4919804.35 673.04
1166914.19 4919804.18 672.94
1166912.92 4919803.90 678.11
1166911.13 4919803.08 685.69
1166911.14 4919802.92 685.70
1166911.18 4919802.75 685.68
1166913.07 4919802.86 678.08
1166911.19 4919802.58 685.69
1166911.22 4919802.41 685.70
1166912.68 4919802.49 679.83
1166911.24 4919802.24 685.69
1166911.26 4919802.07 685.70
1166911.28 4919801.90 685.70
1166911.29 4919801.73 685.71
1166911.32 4919801.56 685.71
1166911.34 4919801.39 685.71
1166913.29 4919801.13 678.09
1166913.36 4919800.61 678.10
1166913.44 4919799.92 678.11
1166913.47 4919799.74 678.10
1166913.49 4919799.56 678.12
1166913.52 4919799.39 678.12
1166913.54 4919799.23 678.11
1166913.56 4919799.05 678.11
1166913.80 4919798.97 678.11
1166913.77 4919799.15 678.12
1166913.75 4919799.32 678.12
1166913.70 4919799.66 678.11
1166913.69 4919799.83 678.11
1166913.66 4919799.99 678.11
1166913.59 4919800.51 678.11
1166913.50 4919801.21 678.10
1166911.56 4919801.46 685.73
1166911.53 4919801.63 685.74
1166911.48 4919801.79 685.84
1166911.42 4919801.96 686.03
1166911.35 4919802.13 686.18
1166911.36 4919802.30 686.08
1166911.36 4919802.47 686.00
1166911.33 4919802.63 686.00
1166911.36 4919802.81 685.84
1166913.29 4919802.94 678.07
1166911.33 4919802.98 685.83
1166911.32 4919803.14 685.79
1166911.30 4919803.31 685.77
1166911.27 4919803.48 685.81
1166911.25 4919803.65 685.81
1166911.23 4919803.82 685.80
1166911.22 4919803.99 685.75
1166911.20 4919804.16 685.73
1166911.18 4919804.32 685.73
1166911.14 4919804.67 685.71
1166911.13 4919804.83 685.71
1166911.09 4919805.00 685.72
1166911.08 4919805.17 685.71
1166911.05 4919805.34 685.71
1166911.04 4919805.51 685.69
1166911.02 4919805.68 685.69
1166910.99 4919805.85 685.69
1166910.98 4919806.01 685.68
1166910.95 4919806.18 685.69
1166910.93 4919806.35 685.68
1166910.90 4919806.52 685.69
1166910.89 4919806.69 685.68
1166910.87 4919806.86 685.68
1166913.65 4919807.20 674.39
1166910.84 4919807.03 685.69
1166912.73 4919807.26 678.05
1166913.65 4919807.38 674.30
1166910.82 4919807.20 685.68
1166912.69 4919807.43 678.08
1166910.79 4919807.35 685.69
1166913.68 4919807.73 674.00
1166910.79 4919807.53 685.62
1166910.75 4919807.69 685.68
1166911.15 4919807.74 684.08
1166910.69 4919808.19 685.69
1166913.72 4919808.63 673.37
1166913.73 4919809.17 673.02
1166913.75 4919809.35 672.89
1166912.45 4919809.33 678.07
1166912.29 4919810.54 678.08
1166911.82 4919810.81 679.83
1166912.22 4919811.06 678.08
1166910.87 4919811.33 683.31
1166912.01 4919812.61 678.08
1166911.93 4919813.30 678.08
1166911.90 4919813.48 678.09
1166911.88 4919813.65 678.09
1166911.83 4919814.00 678.09
1166911.79 4919814.34 678.08
1166912.10 4919814.36 678.07
1166912.15 4919814.01 678.07
1166912.16 4919813.84 678.09
1166912.20 4919813.66 678.07
1166912.21 4919813.49 678.07
1166912.24 4919813.32 678.08
1166912.31 4919812.80 678.07
1166910.55 4919811.58 685.76
1166910.56 4919811.41 685.79
1166910.55 4919811.24 685.92
1166910.55 4919811.05 686.02
1166910.57 4919810.90 686.00
1166910.63 4919810.73 685.89
1166910.64 4919810.56 685.89
1166910.67 4919810.40 685.91
1166910.73 4919810.23 685.73
1166910.70 4919810.06 685.93
1166912.63 4919810.39 678.10
1166910.64 4919809.71 686.36
1166910.71 4919809.55 686.16
1166910.85 4919809.39 685.68
1166910.89 4919809.06 685.70
1166910.80 4919808.87 686.17
1166910.79 4919808.70 686.30
1166910.78 4919808.53 686.43
1166910.80 4919808.36 686.46
1166910.85 4919808.19 686.33
1166912.89 4919808.48 678.05
1166911.06 4919807.87 685.67
1166912.81 4919808.12 678.57
1166911.09 4919807.71 685.60
1166911.54 4919807.77 683.78
1166910.97 4919807.53 686.23
1166911.12 4919807.37 685.69
1166913.46 4919807.68 676.19
1166913.46 4919807.50 676.30
1166913.68 4919807.54 675.39
1166911.01 4919806.68 686.49
1166912.34 4919806.83 681.13
1166911.00 4919806.50 686.60
1166911.01 4919806.33 686.70
1166913.70 4919806.65 675.84
1166911.05 4919806.17 686.59
1166911.16 4919806.01 686.27
1166911.20 4919805.84 686.16
1166913.64 4919806.11 676.32
1166911.36 4919805.69 685.67
1166913.63 4919805.93 676.44
1166911.14 4919805.50 686.62
1166911.32 4919805.34 685.95
1166911.66 4919805.38 684.58
1166911.42 4919805.19 685.68
1166912.01 4919805.24 683.31
1166912.33 4919805.28 682.01
1166911.44 4919805.02 685.66
1166913.00 4919805.17 679.36
1166913.38 4919805.21 677.85
1166913.37 4919804.86 678.07
1166911.24 4919804.32 686.86
1166911.20 4919803.98 687.18
1166911.58 4919804.01 685.68
1166911.31 4919803.31 687.09
1166911.36 4919803.14 686.98
1166913.59 4919803.13 678.09
1166911.73 4919802.83 685.69
1166911.78 4919802.49 685.69
1166911.79 4919802.32 685.70
1166913.52 4919802.42 678.77
1166911.81 4919802.15 685.71
1166912.35 4919802.01 683.66
1166911.86 4919801.82 685.70
1166911.88 4919801.65 685.71
1166911.90 4919801.48 685.71
1166913.83 4919801.40 678.09
1166913.96 4919800.36 678.11
1166913.98 4919800.19 678.11
1166913.99 4919800.01 678.14
1166914.05 4919799.67 678.12
1166914.07 4919799.50 678.12
1166914.10 4919799.32 678.12
1166914.11 4919799.15 678.12
1166914.14 4919798.97 678.14
1166914.39 4919799.04 678.14
1166914.35 4919799.21 678.16
1166914.30 4919799.39 678.29
1166914.25 4919799.56 678.39
1166914.24 4919799.73 678.36
1166914.19 4919799.91 678.45
1166914.14 4919800.08 678.56
1166914.09 4919800.25 678.69
1166914.17 4919800.59 678.18
1166914.14 4919800.76 678.19
1166914.12 4919800.93 678.19
1166914.09 4919801.10 678.19
1166914.08 4919801.28 678.18
1166914.07 4919801.45 678.13
1166912.16 4919801.53 685.70
1166914.05 4919801.62 678.11
1166912.14 4919801.70 685.71
1166912.11 4919801.87 685.71
1166912.09 4919802.03 685.71
1166912.52 4919802.06 684.00
1166912.06 4919802.20 685.70
1166912.04 4919802.37 685.72
1166913.86 4919802.48 678.41
1166912.03 4919802.54 685.70
1166911.96 4919803.05 685.68
1166913.82 4919803.35 678.10
1166911.89 4919803.56 685.71
1166911.69 4919803.70 686.44
1166911.34 4919804.02 687.65
1166911.29 4919804.18 687.74
1166911.80 4919804.22 685.68
1166911.25 4919804.34 687.86
1166911.19 4919804.51 687.97
1166911.26 4919805.36 687.26
1166911.55 4919805.39 686.08
1166911.88 4919805.42 684.74
1166911.20 4919805.53 687.40
1166911.18 4919805.70 687.36
1166913.61 4919805.96 677.55
1166911.21 4919806.71 686.74
1166913.57 4919807.00 677.20
1166911.17 4919806.88 686.85
1166912.56 4919807.06 681.15
1166911.11 4919807.04 686.97
1166910.99 4919807.20 687.37
1166911.41 4919807.26 685.67
1166910.98 4919807.37 687.31
1166911.00 4919807.55 687.15
1166911.39 4919807.60 685.56
1166911.61 4919807.63 684.69
1166911.31 4919807.93 685.71
1166912.71 4919808.12 680.02
1166913.11 4919808.18 678.39
1166911.29 4919808.11 685.67
1166913.16 4919808.37 678.07
1166910.84 4919808.89 687.07
1166911.18 4919808.95 685.68
1166910.78 4919809.06 687.24
1166910.83 4919809.23 686.95
1166910.72 4919809.38 687.29
1166911.12 4919809.45 685.68
1166912.99 4919809.74 678.07
1166910.73 4919809.56 687.17
1166910.73 4919809.73 687.06
1166912.41 4919810.71 679.85
1166910.95 4919810.62 685.69
1166910.93 4919810.79 685.71
1166910.91 4919810.96 685.69
1166911.40 4919811.23 683.61
1166912.75 4919811.48 678.08
1166910.86 4919811.29 685.70
1166910.84 4919811.46 685.73
1166910.82 4919811.63 685.70
1166912.68 4919812.00 678.08
1166915.10 4919812.83 667.99
1166912.57 4919812.86 678.08
1166912.50 4919813.38 678.08
1166912.47 4919813.55 678.09
1166912.41 4919814.07 678.08
1166912.38 4919814.24 678.10
1166912.64 4919814.37 678.08
1166912.66 4919814.19 678.08
1166912.69 4919814.02 678.08
1166912.76 4919813.50 678.09
1166912.78 4919813.33 678.10
1166912.84 4919812.98 678.09
1166911.11 4919811.59 685.69
1166912.97 4919811.95 678.09
1166911.13 4919811.42 685.70
1166911.20 4919810.91 685.69
1166911.32 4919810.07 685.68
1166913.21 4919810.21 678.09
1166911.37 4919809.73 685.66
1166913.23 4919810.04 678.08
1166911.39 4919809.56 685.70
1166913.25 4919809.87 678.08
1166911.50 4919808.71 685.68
1166910.95 4919808.47 688.01
1166913.37 4919808.83 678.16
1166910.95 4919808.30 688.13
1166913.38 4919808.65 678.21
1166910.93 4919807.96 688.39
1166913.45 4919808.31 678.11
1166911.05 4919807.46 688.16
1166912.80 4919807.52 681.15
1166913.48 4919807.60 678.38
1166912.82 4919807.36 681.16
1166913.57 4919807.44 678.16
1166911.72 4919807.04 685.69
1166913.45 4919807.25 678.71
1166911.23 4919806.46 687.99
1166913.45 4919806.73 678.98
1166911.17 4919806.11 688.39
1166911.84 4919806.19 685.68
1166913.46 4919806.38 679.15
1166911.16 4919805.94 688.53
1166913.46 4919806.20 679.24
1166911.15 4919805.77 688.65
1166913.75 4919806.06 678.16
1166911.20 4919805.61 688.57
1166911.20 4919805.44 688.64
1166911.26 4919805.28 688.53
1166912.14 4919805.38 684.91
1166912.46 4919805.40 683.63
1166913.87 4919805.20 678.12
1166912.03 4919804.85 685.68
1166913.85 4919804.85 678.41
1166913.84 4919804.50 678.63
1166913.84 4919804.32 678.73
1166913.84 4919804.15 678.83
1166913.84 4919803.80 679.04
1166913.83 4919803.62 679.14
1166912.25 4919803.15 685.68
1166913.82 4919803.27 679.36
1166913.82 4919803.10 679.45
1166912.34 4919802.49 685.70
1166912.36 4919802.32 685.71
1166912.42 4919802.15 685.60
1166912.49 4919801.99 685.38
1166912.43 4919801.82 685.70
1166912.45 4919801.65 685.73
1166914.02 4919801.72 679.42
1166912.47 4919801.48 685.71
1166914.05 4919801.55 679.36
1166914.10 4919801.38 679.28
1166914.19 4919801.04 679.12
1166914.22 4919800.86 679.05
1166915.26 4919800.02 675.36
1166914.63 4919799.84 678.02
1166915.50 4919800.01 675.39
1166912.70 4919801.62 685.72
1166912.68 4919801.79 685.71
1166912.65 4919801.96 685.72
1166912.64 4919802.13 685.72
1166913.19 4919802.16 683.49
1166912.61 4919802.30 685.71
1166912.57 4919802.63 685.70
1166914.00 4919802.73 679.91
1166913.97 4919802.90 679.98
1166913.93 4919803.07 680.05
1166913.88 4919803.24 680.14
1166912.48 4919803.31 685.70
1166913.80 4919803.57 680.29
1166913.76 4919803.75 680.35
1166912.07 4919803.79 687.04
1166913.72 4919803.92 680.41
1166913.68 4919804.09 680.49
1166913.37 4919805.27 681.09
1166911.34 4919805.58 689.04
1166911.29 4919805.73 689.11
1166911.33 4919805.91 688.89
1166913.34 4919806.14 680.74
1166913.51 4919806.15 680.05
1166911.29 4919806.42 688.77
1166912.06 4919806.51 685.66
1166913.33 4919806.66 680.47
1166911.27 4919806.59 688.77
1166912.03 4919806.67 685.68
1166911.24 4919806.75 688.78
1166913.35 4919807.01 680.26
1166911.19 4919806.90 688.89
1166911.16 4919807.06 688.95
1166913.35 4919807.35 680.04
1166911.18 4919807.24 688.78
1166911.09 4919807.40 689.04
1166911.14 4919807.57 688.75
1166911.62 4919807.64 686.81
1166912.05 4919807.88 684.96
1166912.49 4919807.94 683.17
1166913.34 4919808.22 679.63
1166911.80 4919808.35 685.68
1166911.79 4919808.52 685.66
1166911.75 4919808.69 685.69
1166913.44 4919809.11 678.71
1166913.40 4919809.28 678.81
1166913.36 4919809.45 678.87
1166913.41 4919809.81 678.51
1166911.62 4919809.69 685.71
1166913.46 4919810.00 678.16
1166911.60 4919809.87 685.66
1166913.45 4919810.18 678.16
1166911.58 4919810.03 685.69
1166913.41 4919810.35 678.18
1166913.40 4919810.52 678.15
1166913.38 4919810.70 678.13
1166912.94 4919810.78 679.84
1166913.36 4919810.87 678.10
1166911.43 4919811.05 685.71
1166911.72 4919811.09 684.54
1166913.24 4919811.38 678.33
1166911.68 4919811.26 684.61
1166911.39 4919811.38 685.70
1166911.37 4919811.55 685.70
1166913.21 4919811.90 678.13
1166911.34 4919811.72 685.70
1166913.20 4919812.08 678.11
1166913.17 4919812.25 678.13
1166913.15 4919812.42 678.13
1166913.13 4919812.59 678.13
1166913.08 4919812.76 678.20
1166913.08 4919812.93 678.14
1166913.01 4919813.10 678.30
1166912.92 4919813.26 678.59
1166912.92 4919813.44 678.47
1166912.93 4919813.62 678.33
1166912.94 4919813.80 678.18
1166912.93 4919813.97 678.16
1166912.92 4919814.15 678.13
1166912.89 4919814.32 678.11
1166912.87 4919814.50 678.11
1166913.18 4919814.32 678.10
1166913.23 4919814.16 678.00
1166913.30 4919813.63 678.01
1166913.16 4919813.42 678.66
1166913.17 4919813.25 678.73
1166913.17 4919813.07 678.80
1166913.18 4919812.90 678.87
1166913.18 4919812.71 678.96
1166913.19 4919812.54 679.05
1166913.19 4919812.37 679.12
1166913.20 4919812.19 679.20
1166911.63 4919811.71 685.70
1166913.20 4919812.02 679.28
1166911.66 4919811.54 685.70
1166911.67 4919811.37 685.72
1166911.70 4919811.21 685.71
1166911.72 4919811.04 685.71
1166911.75 4919810.87 685.71
1166911.77 4919810.70 685.70
1166913.22 4919810.79 679.85
1166913.22 4919810.62 679.93
1166913.23 4919810.44 680.01
1166913.23 4919810.26 680.09
1166911.89 4919809.86 685.70
1166913.24 4919810.09 680.19
1166913.24 4919809.92 680.24
1166913.25 4919809.75 680.33
1166913.26 4919809.39 680.49
1166913.27 4919809.22 680.56
1166913.26 4919809.04 680.65
1166912.06 4919808.69 685.66
1166913.28 4919808.87 680.71
1166913.28 4919808.52 680.87
1166913.28 4919808.35 680.95
1166913.29 4919808.17 681.03
1166912.40 4919807.88 684.72
1166912.85 4919807.94 682.92
1166911.49 4919807.58 688.55
1166911.96 4919807.64 686.62
1166911.15 4919807.36 690.01
1166911.26 4919806.88 689.86
1166913.28 4919807.13 681.65
1166912.32 4919806.83 685.66
1166913.41 4919806.97 681.23
1166913.27 4919806.79 681.87
1166912.36 4919806.50 685.68
1166913.27 4919806.61 681.98
1166911.31 4919805.71 690.28
1166913.68 4919805.27 681.08
1166913.71 4919805.09 681.01
1166912.59 4919804.82 685.68
1166912.63 4919804.49 685.70
1166912.77 4919803.47 685.69
1166912.81 4919803.14 685.69
1166912.91 4919802.46 685.70
1166912.93 4919802.29 685.70
1166912.97 4919801.96 685.72
1166913.00 4919801.79 685.71
1166913.02 4919801.63 685.70
1166917.31 4919801.84 668.47
1166916.10 4919800.07 675.51
1166913.34 4919801.52 685.71
1166913.29 4919801.85 685.72
1166913.26 4919802.19 685.72
1166913.23 4919802.37 685.70
1166913.21 4919802.53 685.70
1166913.14 4919803.04 685.69
1166913.06 4919803.71 685.68
1166912.63 4919803.85 687.29
1166912.96 4919804.37 685.70
1166912.87 4919805.05 685.67
1166912.90 4919805.39 685.40
1166913.21 4919805.43 684.11
1166911.59 4919805.59 690.48
1166911.94 4919805.63 689.08
1166911.33 4919805.74 691.45
1166912.73 4919806.06 685.68
1166911.29 4919806.07 691.44
1166912.70 4919806.23 685.69
1166911.30 4919806.24 691.31
1166911.93 4919806.30 688.76
1166911.31 4919806.57 691.07
1166913.20 4919806.80 683.40
1166911.27 4919806.73 691.17
1166911.86 4919806.80 688.79
1166912.59 4919807.07 685.67
1166913.21 4919807.15 683.16
1166911.42 4919807.42 690.16
1166911.66 4919807.46 689.18
1166911.89 4919807.65 688.18
1166912.33 4919807.71 686.39
1166912.77 4919807.95 684.50
1166913.21 4919808.01 682.72
1166912.43 4919808.25 685.68
1166912.37 4919808.75 685.67
1166912.35 4919808.92 685.68
1166911.84 4919809.35 687.43
1166912.22 4919809.76 685.69
1166912.18 4919810.10 685.68
1166912.09 4919810.76 685.70
1166912.06 4919810.94 685.69
1166912.56 4919811.38 683.44
1166911.99 4919811.43 685.70
1166911.94 4919811.77 685.71
1166916.10 4919813.15 668.38
1166914.19 4919814.36 675.31
1166912.23 4919811.80 685.69
1166912.25 4919811.63 685.72
1166912.28 4919811.46 685.69
1166912.30 4919811.30 685.70
1166912.90 4919811.40 683.21
1166912.32 4919811.12 685.70
1166912.38 4919810.79 685.69
1166912.44 4919810.28 685.68
1166912.50 4919809.77 685.74
1166912.54 4919809.60 685.70
1166912.13 4919809.37 687.43
1166912.61 4919809.10 685.67
1166912.73 4919808.25 685.69
1166912.76 4919808.10 685.67
1166913.13 4919807.97 684.25
1166911.80 4919807.62 689.77
1166912.27 4919807.68 687.86
1166911.31 4919807.39 691.83
1166911.31 4919807.22 691.96
1166912.84 4919807.42 685.68
1166913.14 4919807.45 684.46
1166911.39 4919806.89 691.82
1166913.14 4919807.11 684.68
1166913.37 4919807.15 683.74
1166911.48 4919805.89 691.98
1166911.49 4919805.73 692.00
1166912.79 4919805.53 686.96
1166913.12 4919805.56 685.61
1166913.14 4919805.40 685.66
1166913.15 4919805.22 685.68
1166913.29 4919804.22 685.70
1166913.34 4919803.88 685.69
1166913.48 4919802.87 685.70
1166913.50 4919802.71 685.71
1166913.52 4919802.54 685.71
1166913.54 4919802.37 685.71
1166913.57 4919802.20 685.71
1166913.59 4919802.03 685.71
1166913.62 4919801.86 685.72
1166913.64 4919801.69 685.72
1166913.66 4919801.52 685.73
1166913.91 4919801.93 685.65
1166913.86 4919802.10 685.76
1166913.75 4919802.26 686.14
1166913.69 4919802.43 686.28
1166913.64 4919802.60 686.37
1166913.63 4919802.77 686.31
1166913.69 4919802.94 685.98
1166913.72 4919803.11 685.74
1166913.71 4919803.28 685.71
1166913.69 4919803.44 685.71
1166913.63 4919803.61 685.85
1166913.58 4919803.78 685.98
1166913.18 4919803.92 687.46
1166913.61 4919803.95 685.73
1166913.56 4919804.12 685.85
1166913.55 4919804.46 685.71
1166913.53 4919804.63 685.71
1166913.49 4919804.79 685.76
1166913.48 4919804.96 685.73
1166913.41 4919805.29 685.80
1166913.39 4919805.46 685.78
1166912.71 4919805.55 688.45
1166913.03 4919805.59 687.13
1166913.37 4919805.62 685.76
1166912.08 4919805.65 690.93
1166912.38 4919805.69 689.68
1166911.69 4919805.77 692.37
1166911.66 4919805.94 692.43
1166913.31 4919806.14 685.72
1166912.53 4919806.22 688.78
1166913.28 4919806.31 685.74
1166911.60 4919806.43 692.41
1166911.37 4919806.58 693.20
1166913.38 4919806.83 685.05
1166911.36 4919806.74 693.16
1166913.35 4919806.99 685.12
1166912.42 4919807.05 688.75
1166913.28 4919807.16 685.26
1166911.50 4919807.26 692.33
1166913.14 4919807.48 685.64
1166911.73 4919807.46 691.31
1166913.07 4919807.98 685.67
1166912.88 4919809.32 685.66
1166912.82 4919809.66 685.74
1166912.72 4919810.51 685.68
1166912.67 4919810.84 685.69
1166912.64 4919811.00 685.70
1166912.61 4919811.17 685.70
1166913.22 4919811.45 683.09
1166912.57 4919811.51 685.69
1166916.80 4919813.30 668.85
1166912.79 4919811.77 685.72
1166912.81 4919811.61 685.73
1166912.83 4919811.43 685.74
1166912.86 4919811.27 685.75
1166912.87 4919811.09 685.78
1166912.89 4919810.92 685.80
1166912.92 4919810.76 685.78
1166912.95 4919810.59 685.76
1166912.97 4919810.25 685.83
1166913.03 4919810.10 685.71
1166913.05 4919809.93 685.70
1166913.08 4919809.76 685.72
1166912.71 4919809.36 687.44
1166913.09 4919809.42 685.84
1166913.10 4919809.25 685.91
1166913.11 4919809.08 685.95
1166913.19 4919808.92 685.74
1166913.22 4919808.75 685.70
1166913.25 4919808.58 685.71
1166913.13 4919808.39 686.30
1166913.18 4919808.23 686.17
1166913.25 4919808.07 686.00
1166912.68 4919807.14 688.76
1166913.14 4919807.20 686.93
1166911.78 4919806.36 692.80
1166913.34 4919806.55 686.49
