308.33 596.63 164.53
308.22 596.8 164.63
308.48 596.9 164.62
308.48 596.64 164.96
308.59 596.46 164.85
308.7 596.27 164.79
310.36 592.59 165.88
308.96 595.97 165.68
308.91 596.2 165.52
308.63 596.77 165.63
309.2 597.15 164.63
308.87 596.67 166.24
309.25 595.91 166.12
309.29 595.68 166.3
310.51 592.7 166.55
310.77 592.36 167.77
310.62 592.76 167.69
310.35 593.33 167.75
310.18 593.73 167.75
310.09 593.93 167.77
310.01 594.13 167.74
309.92 594.32 167.75
309.85 594.51 167.74
309.76 594.71 167.74
309.71 595.18 167.27
309.67 595.4 167.1
309.08 596.78 167.09
309.7 597.21 164.65
308.99 596.97 167.1
309.64 597.42 164.56
309.01 597.2 167.85
309.19 596.81 167.82
309.27 596.61 167.83
309.36 596.42 167.83
309.53 596.03 167.83
309.61 595.83 167.84
309.7 595.64 167.84
309.78 595.44 167.86
309.86 595.24 167.86
309.98 595.07 167.73
310.04 594.86 167.85
310.12 594.66 167.84
310.86 592.89 167.96
310.91 592.66 168.1
311.16 592.85 168.1
310.98 592.98 168.48
310.24 594.76 168.36
309.3 597.15 168.07
309.58 597.23 168.1
309.51 596.92 168.72
310.57 597.64 164.58
310.52 594.57 168.78
311.14 592.98 168.99
311.46 592.94 168.1
311.29 593.13 169.75
310.88 594.11 169.69
310.29 597.71 168.02
309.81 597.13 170.23
311.34 597.93 164.58
311.23 593.81 170.34
311.28 593.6 170.45
311.64 593.31 171.14
311.56 593.5 171.13
311.72 598.13 164.57
310.06 597.58 171.25
310.07 597.33 171.56
311.94 598.35 164.59
312.02 598.16 164.59
311.84 593.26 171.57
312.84 593.64 168.08
312.92 593.45 168.08
312.94 591.56 171.65
312.85 591.76 171.66
312.77 591.95 171.65
312.69 592.14 171.64
312.61 592.33 171.63
312.53 592.53 171.62
312.44 592.73 171.61
312.36 592.92 171.61
312.28 593.12 171.61
312.19 593.31 171.6
311.95 593.4 172.22
312.03 593.7 171.59
311.94 593.9 171.58
311.86 594.08 171.58
311.78 594.28 171.57
311.7 594.47 171.57
311.61 594.67 171.56
311.53 594.87 171.55
311.45 595.06 171.55
311.37 595.25 171.55
311.29 595.44 171.54
311.2 595.63 171.54
311.12 595.84 171.52
311.03 596.02 171.53
310.95 596.22 171.51
310.87 596.41 171.51
310.78 596.61 171.51
310.71 596.8 171.5
310.62 597.0 171.5
310.53 597.19 171.5
310.45 597.39 171.49
310.2 597.47 172.16
310.29 597.78 171.48
310.2 597.97 171.47
310.12 598.17 171.47
310.04 598.36 171.46
309.96 598.56 171.45
309.87 598.75 171.45
309.79 598.94 171.44
309.71 599.14 171.43
309.63 599.33 171.42
309.97 599.4 171.46
310.05 599.21 171.48
310.13 599.01 171.48
310.22 598.82 171.48
310.3 598.62 171.48
310.39 598.42 171.49
310.47 598.24 171.49
310.55 598.04 171.5
310.63 597.85 171.51
310.4 597.44 172.74
310.81 597.46 171.5
310.89 597.27 171.5
310.97 597.07 171.51
311.06 596.88 171.51
311.14 596.68 171.51
311.22 596.49 171.52
311.31 596.3 171.52
311.39 596.1 171.52
311.48 595.91 171.52
311.56 595.71 171.53
311.64 595.52 171.53
311.73 595.33 171.52
311.81 595.13 171.53
311.9 594.94 171.53
311.98 594.75 171.54
312.07 594.56 171.53
312.15 594.37 171.53
312.23 594.17 171.54
312.32 593.98 171.54
312.08 593.58 172.79
312.4 593.78 171.55
312.17 593.39 172.76
312.48 593.59 171.55
312.56 593.4 171.56
312.65 593.2 171.55
312.73 593.01 171.56
312.82 592.82 171.57
312.9 592.61 171.57
312.98 592.43 171.57
313.07 592.24 171.58
313.15 592.04 171.59
313.23 591.84 171.6
313.32 591.65 171.59
313.9 594.08 168.08
312.95 593.73 171.4
313.86 594.31 167.91
312.34 593.59 173.42
313.6 594.89 167.9
313.52 595.09 167.89
313.44 595.28 167.89
313.35 595.48 167.89
313.27 595.68 167.88
313.19 595.87 167.88
313.11 596.07 167.86
313.02 596.27 167.86
312.94 596.46 167.84
312.17 596.21 170.49
312.85 596.67 167.85
312.77 596.85 167.86
312.69 597.05 167.84
312.6 597.25 167.83
312.52 597.44 167.83
312.43 597.64 167.82
312.35 597.83 167.82
312.27 598.03 167.8
312.19 598.23 167.79
310.89 597.59 172.54
311.11 597.74 171.68
312.05 598.39 167.99
310.49 597.57 173.75
313.8 598.25 164.04
314.26 597.04 164.24
312.47 593.63 174.12
314.96 595.07 162.6
314.32 596.43 162.57
313.75 597.74 162.54
313.77 597.53 162.54
313.78 597.32 162.5
314.52 595.59 164.21
314.56 595.18 164.23
314.69 594.58 164.43
314.52 594.54 165.02
314.41 594.73 164.75
314.02 596.74 164.2
314.0 596.95 164.19
313.97 597.15 164.15
313.93 597.35 164.12
313.27 598.89 162.57
313.02 598.85 162.94
313.19 598.68 163.41
313.42 598.52 164.07
313.46 598.32 164.14
313.5 598.11 164.19
313.52 597.91 164.2
313.54 597.7 164.18
314.34 594.52 165.64
314.48 594.14 165.98
314.22 594.05 166.59
314.14 594.45 166.47
312.98 598.59 164.25
312.59 598.82 164.58
312.62 598.62 164.58
312.8 598.45 165.09
312.79 598.24 164.99
312.88 598.05 165.22
312.96 597.86 165.39
313.94 594.32 167.29
313.83 594.13 168.07
313.76 594.32 167.89
313.74 594.52 167.89
313.71 594.72 167.88
313.68 594.92 167.86
313.65 595.13 167.82
312.95 597.26 166.37
312.87 597.45 166.2
312.77 597.64 165.92
312.62 598.44 165.73
312.24 598.57 164.59
311.83 598.43 164.55
312.44 598.35 166.41
312.84 596.77 167.12
313.12 596.21 167.84
313.15 596.01 167.85
313.17 595.8 167.85
313.56 594.23 168.55
313.43 593.99 168.06
313.44 593.78 168.03
313.08 593.81 168.07
313.36 594.3 169.09
312.96 595.86 168.37
312.9 596.06 168.23
312.8 596.24 168.01
312.66 597.04 167.83
312.61 597.45 167.8
312.54 597.86 167.72
312.27 598.21 167.01
312.23 598.41 166.95
312.1 598.49 167.96
312.07 598.27 167.8
312.76 595.51 169.05
312.85 595.33 169.29
313.18 594.16 169.92
312.64 593.59 168.08
313.46 591.81 171.52
313.43 592.01 171.49
313.02 593.97 170.86
312.92 594.36 170.67
312.85 594.55 170.53
312.76 594.73 170.3
311.81 598.25 168.54
311.61 598.42 167.98
311.24 598.17 167.99
311.69 598.05 169.35
312.8 593.96 171.44
311.77 593.28 168.05
312.89 593.17 171.47
312.93 592.97 171.54
312.96 592.78 171.57
312.99 592.57 171.59
313.01 592.37 171.59
313.05 591.96 171.59
313.08 591.77 171.6
313.1 591.56 171.61
312.77 591.78 171.68
312.71 592.18 171.64
312.69 592.38 171.63
312.66 592.59 171.63
312.63 592.79 171.59
312.59 592.99 171.52
312.55 593.39 171.55
311.46 593.1 168.06
312.53 593.59 171.55
312.71 593.84 172.17
312.45 594.19 171.47
312.41 594.39 171.42
311.53 597.9 169.87
309.86 597.53 164.58
311.51 598.11 169.89
311.31 598.05 170.37
310.56 597.89 168.01
309.57 597.25 164.74
311.91 595.5 171.42
311.95 595.31 171.46
311.98 595.11 171.5
312.01 594.91 171.52
312.03 594.71 171.52
312.08 594.1 171.48
312.12 593.9 171.54
312.56 593.81 172.86
312.18 593.5 171.59
312.23 593.09 171.61
311.1 592.79 168.05
312.14 591.42 170.79
310.67 592.67 168.1
310.54 593.05 167.81
312.5 593.78 174.12
311.46 593.71 170.88
310.49 593.46 167.79
311.33 593.89 170.54
310.47 593.66 167.8
311.2 594.06 170.19
311.06 594.23 169.82
311.56 594.78 171.53
310.77 594.58 169.04
311.52 595.17 171.53
311.48 595.37 171.51
311.44 595.78 171.5
311.42 595.99 171.51
311.38 596.38 171.52
311.35 596.58 171.49
311.28 596.99 171.42
309.14 597.11 164.85
311.16 597.77 171.28
309.04 597.3 164.61
311.14 597.98 171.29
309.94 599.28 169.51
310.62 598.6 171.37
310.68 598.2 171.45
310.72 598.0 171.48
310.94 597.85 172.13
310.78 597.39 171.49
308.68 596.92 164.85
310.77 597.19 171.39
308.76 596.73 165.05
310.8 596.99 171.43
308.79 596.53 165.08
310.84 596.79 171.47
310.87 596.6 171.49
310.89 596.39 171.49
309.74 595.71 167.72
309.77 595.51 167.77
309.8 595.3 167.8
309.83 595.09 167.81
309.3 596.31 167.81
309.28 596.5 167.81
309.25 596.71 167.79
309.22 596.91 167.76
309.94 597.28 170.1
310.76 597.88 172.82
310.32 597.78 171.42
310.3 597.98 171.45
310.27 598.18 171.42
310.23 598.38 171.36
310.24 598.59 171.45
310.2 598.99 171.46
310.18 599.2 171.46
310.15 599.39 171.46
309.76 599.43 171.33
309.82 599.03 171.41
309.87 598.63 171.43
310.54 597.75 173.19
310.52 597.55 173.09
308.92 597.19 168.04
314.41 596.12 162.58
314.35 596.32 162.56
314.3 596.51 162.57
313.29 598.91 162.46
313.39 598.72 162.62
313.42 598.51 162.54
313.47 598.32 162.53
313.58 597.93 162.5
313.63 597.73 162.5
314.89 595.03 164.12
314.68 594.75 164.27
314.44 595.53 164.21
314.4 595.73 164.26
314.22 596.32 164.22
314.05 596.9 164.19
313.98 597.1 164.17
313.92 597.29 164.14
313.86 597.49 164.14
313.81 597.68 164.12
313.74 597.88 164.08
313.23 598.63 163.13
313.18 598.83 163.14
313.18 598.97 164.19
313.23 598.78 164.19
313.29 598.59 164.21
313.34 598.38 164.2
313.45 597.99 164.19
313.51 597.8 164.19
313.56 597.6 164.2
313.61 597.4 164.18
313.67 597.21 164.2
314.55 594.68 164.76
314.61 594.48 164.76
314.56 594.01 165.84
314.56 594.22 166.02
314.33 594.59 165.63
312.94 598.46 164.62
312.87 598.65 164.58
312.82 598.85 164.59
312.5 598.71 164.59
312.75 598.53 165.21
312.74 598.32 165.0
312.85 598.14 165.21
312.95 597.94 165.35
314.2 594.46 166.25
314.34 594.28 166.55
314.39 594.08 166.55
314.01 593.94 166.61
314.0 594.35 166.93
313.93 594.54 166.89
312.91 597.43 166.19
312.81 597.62 166.02
312.56 598.39 165.91
312.48 598.59 165.84
312.1 598.56 164.59
312.37 598.48 166.29
311.85 598.43 164.58
312.44 598.29 166.35
312.75 597.32 166.49
312.86 597.12 166.68
312.95 596.93 166.81
313.86 594.43 167.49
314.05 594.25 167.95
313.75 594.06 168.04
313.7 594.26 168.06
313.63 594.45 168.02
313.32 595.41 167.87
313.27 595.6 167.87
313.21 595.79 167.86
313.16 595.99 167.85
313.1 596.18 167.86
313.04 596.37 167.84
312.99 596.58 167.83
312.93 596.77 167.82
312.87 596.95 167.78
312.81 597.15 167.78
312.75 597.34 167.76
312.26 598.29 167.03
312.09 598.55 167.91
312.09 598.36 167.73
312.12 598.16 167.68
311.18 598.07 164.55
312.77 596.23 168.06
312.89 596.04 168.27
313.49 594.31 168.7
313.54 594.11 168.69
313.41 593.9 168.06
312.98 593.66 168.03
312.94 593.86 168.08
313.32 594.11 169.54
313.26 594.3 169.49
312.85 595.45 169.21
310.75 597.83 164.52
311.89 598.14 168.47
311.77 598.33 168.25
311.4 598.33 168.0
311.75 598.16 168.99
310.48 597.85 164.6
312.82 595.09 169.73
312.91 594.9 169.86
313.18 594.14 170.06
312.7 593.67 168.08
312.36 593.4 168.03
312.32 593.59 168.07
313.01 594.08 170.74
310.1 597.76 164.58
311.58 598.09 169.67
311.03 598.24 168.01
311.38 598.16 170.03
311.46 597.96 170.12
309.85 597.62 164.58
312.82 594.14 171.15
312.91 593.95 171.29
312.06 593.43 168.06
312.1 593.24 168.03
313.03 592.06 171.6
312.9 592.44 171.54
312.87 592.63 171.58
312.81 592.83 171.57
312.76 593.02 171.57
312.6 593.6 171.56
312.54 593.78 171.55
312.53 593.98 171.69
312.43 594.16 171.51
312.36 594.35 171.47
312.25 594.73 171.43
311.47 595.84 169.89
309.83 596.86 165.46
309.51 597.24 164.77
309.42 597.43 164.63
310.37 597.72 167.98
311.23 597.99 171.0
310.94 598.08 171.29
311.08 597.89 171.6
310.06 597.6 168.02
309.09 597.32 164.6
311.24 597.11 171.41
311.35 596.73 171.46
311.47 596.34 171.49
311.52 596.15 171.51
311.58 595.96 171.52
311.63 595.77 171.52
311.73 595.38 171.51
311.93 594.62 171.47
312.04 594.23 171.5
312.1 594.04 171.53
312.53 593.9 172.81
312.16 593.85 171.54
312.28 593.47 171.6
312.33 593.27 171.6
312.38 593.08 171.6
312.44 592.88 171.61
312.49 592.69 171.6
312.54 592.5 171.61
312.59 592.31 171.6
310.95 592.92 168.08
311.21 593.15 169.11
311.85 593.43 171.44
312.33 593.69 173.23
312.52 593.92 174.06
311.57 593.8 170.85
311.4 593.98 170.47
311.23 594.16 170.07
311.06 594.33 169.66
310.89 594.52 169.28
311.4 595.17 171.52
311.3 595.55 171.53
311.25 595.74 171.53
311.19 595.94 171.52
311.14 596.12 171.51
311.08 596.32 171.49
311.02 596.51 171.46
308.98 596.31 164.63
310.96 596.7 171.43
310.9 596.89 171.41
310.85 597.09 171.41
309.0 596.92 165.25
310.82 597.28 171.48
308.78 597.09 164.67
310.77 597.47 171.48
310.72 597.66 171.49
309.68 597.57 168.03
310.9 597.88 172.28
310.56 598.24 171.49
310.51 598.43 171.5
310.45 598.62 171.48
310.4 598.82 171.46
310.34 599.01 171.44
310.22 599.39 171.39
310.16 599.58 171.37
309.95 599.52 171.45
310.01 599.33 171.47
310.05 599.13 171.44
310.11 598.94 171.45
310.19 598.56 171.38
310.24 598.37 171.37
310.29 598.17 171.37
310.36 597.98 171.42
310.8 597.81 172.71
310.47 597.59 171.46
310.53 597.4 171.49
310.58 597.2 171.48
310.63 597.01 171.48
310.69 596.81 171.49
308.76 596.63 165.04
310.74 596.63 171.49
308.88 596.45 165.27
310.79 596.44 171.5
309.04 596.27 165.62
309.36 595.9 166.36
309.52 595.71 166.72
309.68 595.53 167.08
309.85 595.35 167.45
310.0 595.15 167.78
310.11 594.97 167.98
310.1 594.77 167.79
310.49 594.61 168.9
310.15 594.57 167.76
310.63 594.43 169.22
310.21 594.38 167.79
310.8 594.25 169.6
310.27 594.18 167.82
310.96 594.07 169.97
310.32 593.99 167.81
310.37 593.79 167.82
312.21 593.82 173.83
310.43 593.6 167.82
310.48 593.41 167.82
310.53 593.21 167.83
310.58 593.02 167.83
310.7 592.83 168.02
309.46 595.7 167.81
309.35 596.09 167.81
309.3 596.29 167.81
309.25 596.48 167.82
309.2 596.68 167.82
309.14 596.87 167.81
309.09 597.06 167.81
310.38 597.58 172.47
310.8 597.8 174.03
310.56 597.78 173.23
309.28 598.86 169.99
309.59 599.27 171.39
