237.32 459.25 24.44
236.8 459.16 24.52
237.3 459.15 25.21
237.11 459.02 24.85
236.86 458.97 24.86
236.57 458.94 25.01
237.51 458.79 24.69
237.07 458.95 25.77
236.35 458.74 25.5
237.61 458.56 24.84
237.07 458.83 26.41
236.83 458.76 26.35
236.12 458.54 26.06
237.68 458.36 25.1
237.06 458.72 27.15
236.34 458.52 26.94
235.87 458.37 26.74
237.73 458.18 25.49
237.04 458.63 27.95
236.81 458.55 27.84
236.56 458.5 27.84
236.81 458.2 26.37
235.36 458.17 27.53
231.05 456.93 26.15
230.85 456.81 25.81
237.21 458.31 27.67
237.43 458.05 26.38
236.8 458.44 28.52
235.64 458.07 28.02
235.39 458.02 28.02
235.15 457.96 27.97
231.55 456.97 27.04
231.34 456.85 26.7
231.14 456.73 26.4
230.89 456.67 26.37
230.64 456.62 26.36
230.4 456.54 26.26
230.16 456.47 26.19
229.92 456.41 26.14
237.11 458.3 28.86
237.28 458.11 27.93
236.81 458.31 29.15
236.55 458.27 29.2
236.34 458.17 28.99
235.78 457.8 27.93
234.92 457.77 28.56
232.05 456.99 27.82
231.85 456.87 27.5
231.63 456.76 27.25
231.0 456.43 26.42
230.19 456.36 26.87
229.97 456.26 26.62
237.14 458.15 29.37
236.79 458.21 29.92
236.38 458.01 29.44
236.14 457.96 29.44
235.89 457.9 29.42
235.64 457.85 29.42
235.39 457.8 29.43
235.15 457.74 29.38
234.69 457.59 29.16
232.53 457.02 28.7
232.34 456.9 28.35
231.9 456.71 27.94
231.65 456.65 27.93
231.41 456.6 27.92
231.16 456.54 27.89
230.91 456.48 27.87
230.67 456.43 27.87
230.43 456.35 27.75
230.2 456.27 27.64
230.12 455.95 26.38
237.71 457.38 26.84
236.78 458.11 30.69
236.28 458.01 30.7
236.06 457.93 30.55
236.5 457.41 28.0
235.84 457.84 30.38
235.62 457.76 30.22
235.01 457.44 29.42
234.19 457.39 29.95
233.01 457.05 29.55
232.81 456.94 29.28
231.77 456.4 27.94
231.15 456.48 28.81
230.44 456.26 28.54
230.24 456.14 28.19
236.93 458.47 33.21
237.77 457.18 27.14
236.44 458.38 33.24
236.83 457.93 31.04
236.2 458.33 33.22
236.56 457.9 31.16
235.96 458.27 33.2
236.35 457.81 30.98
236.11 457.76 30.96
235.86 457.7 30.94
235.62 457.64 30.9
235.38 457.59 30.91
235.38 457.23 29.41
233.99 457.18 30.39
233.49 457.08 30.43
233.29 456.97 30.13
232.65 456.67 29.46
232.35 456.69 29.82
232.25 456.43 28.82
231.91 456.51 29.44
231.67 456.46 29.43
231.42 456.4 29.41
231.18 456.35 29.39
230.94 456.28 29.33
230.7 456.22 29.28
230.47 456.14 29.17
230.31 455.96 28.56
230.24 455.63 27.23
230.35 455.45 26.4
236.84 458.13 33.05
237.83 456.99 27.46
236.83 457.81 31.7
236.34 458.04 33.1
236.56 457.79 31.86
236.1 457.99 33.1
236.4 457.64 31.39
235.86 457.94 33.09
236.1 457.64 31.66
235.74 457.03 29.43
234.99 457.24 30.97
234.39 457.64 33.14
234.75 457.19 30.97
234.16 457.59 33.11
234.5 457.14 30.98
233.92 457.53 33.07
234.25 457.09 30.99
234.02 457.03 30.93
233.77 456.97 30.91
233.59 456.85 30.55
232.52 456.36 29.44
231.91 456.42 30.23
231.65 456.4 30.39
231.92 456.0 28.47
231.71 455.9 28.23
231.5 455.79 27.96
230.74 456.09 29.86
230.53 455.97 29.58
230.51 455.57 27.91
230.27 455.5 27.84
237.88 456.81 27.84
236.73 457.8 32.95
237.34 457.09 29.47
236.54 457.68 32.59
236.32 457.61 32.48
237.02 456.78 28.46
236.08 457.55 32.46
235.63 457.41 32.26
235.29 457.47 32.82
235.37 457.37 32.32
235.81 456.82 29.68
235.03 457.44 32.93
235.54 456.8 29.84
234.37 456.83 30.97
234.13 456.78 30.94
233.57 457.14 32.94
233.33 457.09 32.93
233.64 456.68 30.98
233.09 457.04 32.91
233.03 456.35 30.14
232.66 456.47 30.96
232.41 456.42 30.95
232.17 456.37 30.96
231.63 456.74 32.96
231.92 456.32 30.97
231.39 456.69 32.95
231.68 456.26 30.92
231.15 456.63 32.92
231.44 456.21 30.9
231.22 456.13 30.77
230.95 456.1 30.91
231.36 455.49 28.03
230.75 455.99 30.63
230.67 455.69 29.43
230.63 455.31 27.9
230.39 455.24 27.82
237.33 456.98 30.2
236.53 457.58 33.33
236.37 457.43 32.86
236.13 457.38 32.85
235.83 457.39 33.19
236.46 456.62 29.45
235.63 457.29 32.93
235.2 457.11 32.56
234.92 457.11 32.81
234.67 457.07 32.84
234.43 457.01 32.8
234.73 456.63 30.96
234.19 456.96 32.8
233.51 456.37 30.95
232.98 456.71 32.81
232.74 456.66 32.81
232.5 456.6 32.79
232.68 455.95 29.94
232.26 455.74 29.45
231.46 456.09 31.57
231.04 456.31 32.85
231.25 455.99 31.35
230.8 456.26 32.84
230.55 456.22 32.88
230.8 455.83 31.07
230.78 455.43 29.42
230.62 455.24 28.76
237.39 457.45 33.24
237.17 457.37 33.12
237.47 456.69 30.03
236.58 457.39 33.7
236.8 457.14 32.45
236.29 457.4 33.97
236.05 457.34 33.95
236.26 457.09 32.74
236.53 456.42 29.73
235.77 457.0 32.78
235.52 456.95 32.78
234.75 456.85 33.03
234.48 456.85 33.26
234.31 456.7 32.8
234.07 456.65 32.79
233.38 456.06 30.95
232.63 456.32 32.65
232.41 456.24 32.53
232.19 456.16 32.37
231.98 456.05 32.11
232.12 455.45 29.51
231.42 456.06 32.62
231.16 456.03 32.75
231.01 455.85 32.14
230.67 455.95 32.82
230.92 455.57 31.02
230.89 455.18 29.43
230.86 454.8 27.9
237.5 457.19 33.25
237.62 456.38 29.8
236.56 457.29 34.47
236.3 457.26 34.55
235.84 457.14 34.47
235.68 456.99 33.96
235.44 456.94 33.97
235.2 456.89 33.96
234.96 456.83 33.95
234.72 456.78 33.94
234.48 456.72 33.9
234.31 456.59 33.51
234.02 456.6 33.78
233.78 456.54 33.75
233.95 456.33 32.73
233.58 456.44 33.53
233.37 456.35 33.31
233.17 456.25 33.07
233.24 455.75 30.95
232.49 456.03 32.75
232.24 455.98 32.76
231.98 455.96 32.91
231.78 455.44 30.93
231.99 455.12 29.43
231.27 455.78 32.79
231.08 455.65 32.41
230.79 455.68 32.78
231.04 455.3 30.97
230.54 455.65 32.85
230.29 455.61 32.92
230.75 454.43 27.64
237.13 459.34 43.64
237.62 456.92 33.21
237.4 456.85 33.1
237.78 456.07 29.54
236.57 457.15 35.06
237.01 456.63 32.53
236.27 457.17 35.39
236.09 457.05 35.03
236.96 456.01 30.0
235.85 457.0 35.03
235.61 456.95 35.03
235.38 456.89 35.0
235.14 456.85 35.02
235.81 456.0 30.97
234.93 456.75 34.79
234.72 456.67 34.66
234.51 456.58 34.45
234.32 456.46 34.11
233.87 456.32 33.93
233.56 456.36 34.39
233.37 456.25 34.06
233.14 456.18 33.97
232.9 456.13 33.96
232.66 456.07 33.94
232.43 456.02 33.92
232.19 455.96 33.91
231.95 455.91 33.9
232.38 455.28 30.91
231.74 455.82 33.69
231.5 455.76 33.66
231.64 455.55 32.68
231.29 455.66 33.43
231.16 455.46 32.69
231.3 455.24 31.69
230.9 455.42 32.77
231.15 455.04 30.97
231.0 454.84 30.29
230.82 454.25 28.0
237.31 459.01 43.29
237.74 456.66 33.19
237.51 456.59 33.08
237.29 456.52 32.99
237.89 455.82 29.58
237.13 456.37 32.51
237.4 456.04 30.93
236.25 457.07 36.18
235.99 457.05 36.29
235.85 456.88 35.73
235.64 456.79 35.52
236.17 455.79 30.96
235.92 455.74 30.95
234.71 456.21 33.93
234.2 455.4 31.0
233.96 455.34 30.96
233.71 455.29 30.98
232.85 456.09 35.04
232.63 456.02 34.95
232.42 455.92 34.69
232.21 455.84 34.52
231.99 455.75 34.36
231.49 455.69 34.52
231.32 455.54 34.05
231.37 455.05 31.99
231.02 455.16 32.74
231.27 454.78 30.95
230.77 455.13 32.83
231.3 454.29 28.89
230.51 455.1 32.92
237.46 458.71 43.08
237.01 458.61 43.03
237.4 456.26 33.0
237.17 456.19 32.9
237.51 455.79 30.96
236.28 456.92 36.66
236.02 456.89 36.78
235.8 456.82 36.66
235.55 456.79 36.76
236.04 455.48 30.94
235.05 456.01 33.95
232.42 455.83 35.49
232.15 455.83 35.7
232.84 454.83 30.96
232.6 454.77 30.95
231.74 455.64 35.26
231.52 455.56 35.13
231.41 455.31 34.17
231.41 454.89 32.46
231.35 454.13 29.38
231.1 454.09 29.42
237.6 458.42 42.92
237.74 456.07 33.1
237.51 456.0 32.98
237.28 455.93 32.9
237.62 455.54 30.98
236.3 456.77 37.19
236.04 456.74 37.31
237.13 455.44 30.98
235.81 456.68 37.26
235.58 456.63 37.23
235.36 456.56 37.12
235.1 456.54 37.28
236.14 455.23 30.96
235.41 455.8 33.94
232.96 454.56 30.92
231.98 455.59 36.0
231.76 455.5 35.84
231.64 455.28 35.03
231.53 455.04 34.1
231.52 454.65 32.52
231.4 454.4 31.6
230.99 454.62 32.85
230.73 454.59 32.93
231.23 453.8 29.27
238.52 459.86 49.24
238.05 459.8 49.42
237.75 458.12 42.72
237.3 458.02 42.68
237.63 455.74 32.97
237.4 455.67 32.89
237.73 455.28 30.97
236.49 456.41 36.72
236.8 456.05 34.97
237.49 455.22 30.95
236.01 456.66 38.16
235.77 456.61 38.15
236.01 455.64 33.95
235.77 455.59 33.94
234.91 456.31 37.67
234.66 456.29 37.77
234.39 456.28 37.98
235.04 455.44 33.95
234.8 455.39 33.94
234.56 455.34 33.95
234.32 455.29 33.93
234.08 455.23 33.92
232.67 455.66 36.89
232.46 455.58 36.74
232.26 455.47 36.46
233.07 454.31 30.94
231.98 455.5 36.8
231.81 455.35 36.32
231.76 455.02 35.03
231.67 454.74 33.92
231.63 454.39 32.51
231.6 454.0 30.94
231.32 453.58 29.44
228.7 456.52 43.84
238.72 459.52 48.84
237.9 457.83 42.55
237.45 457.73 42.52
237.52 455.41 32.87
237.85 455.01 30.93
237.09 455.58 33.94
236.0 456.56 38.92
236.82 455.22 32.69
235.55 456.43 38.77
236.37 455.43 33.93
235.38 456.31 38.41
235.14 456.26 38.4
234.91 456.21 38.39
234.68 456.15 38.36
234.45 456.1 38.36
234.23 456.03 38.26
234.0 455.98 38.22
233.79 455.9 38.07
233.6 455.79 37.78
233.4 455.69 37.55
232.66 455.59 37.76
232.99 454.73 33.94
232.25 455.4 37.34
232.0 455.38 37.47
231.9 455.12 36.47
231.88 454.76 34.99
231.79 454.49 33.95
231.71 454.18 32.75
231.81 453.61 30.31
231.38 453.41 29.84
238.9 459.2 48.53
238.04 457.55 42.45
237.59 457.45 42.42
238.14 454.55 29.95
237.13 455.42 34.39
236.18 456.23 38.55
235.8 456.36 39.42
236.72 455.23 33.95
235.14 456.16 39.14
234.91 456.1 39.11
234.7 456.03 38.98
234.5 455.94 38.79
234.31 455.83 38.49
234.09 455.76 38.41
233.8 455.79 38.77
233.62 455.67 38.43
233.39 455.61 38.4
233.15 455.57 38.41
232.92 455.52 38.4
232.69 455.46 38.36
232.46 455.41 38.34
233.11 454.47 33.9
232.22 455.36 38.35
232.87 454.43 33.92
232.05 455.22 37.91
231.99 454.91 36.69
231.94 454.59 35.37
231.91 454.23 33.93
231.81 453.97 32.92
231.6 453.44 30.92
231.46 453.23 30.16
229.02 455.86 43.15
239.06 458.91 48.34
238.17 457.29 42.41
237.94 457.24 42.41
237.72 457.18 42.37
238.36 454.19 29.43
237.31 455.09 34.04
236.3 455.97 38.56
235.78 456.27 40.25
235.62 456.14 39.84
235.42 456.05 39.63
235.22 455.96 39.42
234.68 455.6 38.4
233.97 455.46 38.42
233.37 455.54 39.27
233.17 455.45 39.07
232.96 455.38 38.95
232.75 455.3 38.78
232.51 455.26 38.82
233.24 454.22 33.91
232.27 455.21 38.84
232.75 454.13 33.97
232.1 454.69 36.82
232.11 454.26 35.04
232.03 453.98 33.94
231.9 453.76 33.16
231.96 453.25 30.97
231.74 453.15 30.78
229.17 455.58 43.0
228.71 455.49 43.02
239.23 458.61 48.13
238.81 458.49 48.03
237.85 456.92 42.32
238.47 453.95 29.53
237.46 454.81 33.91
238.31 453.8 29.02
236.21 455.97 39.79
236.61 455.5 37.51
235.81 456.13 40.79
235.37 456.01 40.65
235.1 456.0 40.86
235.27 455.45 38.45
232.96 455.29 39.74
232.7 455.29 39.97
232.52 455.17 39.62
232.37 455.0 39.04
232.19 454.48 37.03
232.15 453.73 33.95
232.09 453.41 32.7
231.84 453.36 32.72
231.84 452.94 30.96
239.38 458.32 48.0
238.96 458.2 47.87
238.44 456.75 42.31
237.98 456.66 42.3
238.45 454.54 33.16
238.23 454.47 33.05
238.0 454.39 32.93
238.54 453.76 29.83
238.88 453.36 27.9
238.1 453.94 30.94
236.4 455.64 39.43
238.12 453.57 29.42
235.84 455.99 41.37
235.58 455.98 41.55
235.4 455.87 41.25
235.64 455.23 38.4
236.14 454.25 33.91
236.63 453.63 30.93
234.7 455.74 41.27
234.93 455.09 38.42
234.7 455.04 38.41
234.47 454.99 38.39
234.23 454.94 38.39
234.0 454.89 38.39
233.39 455.36 40.81
233.19 455.27 40.62
233.52 454.8 38.41
232.98 455.19 40.49
232.76 455.12 40.37
232.54 455.06 40.3
233.44 452.98 30.93
232.28 454.27 37.26
232.52 453.52 33.93
232.22 453.56 34.35
232.09 453.35 33.6
231.97 453.11 32.7
232.21 452.73 30.94
231.72 453.07 32.76
231.97 452.68 30.93
231.47 453.04 32.84
231.83 452.46 30.13
231.21 453.01 32.93
229.46 455.0 42.67
229.01 454.9 42.66
238.56 456.5 42.34
238.11 456.4 42.31
238.58 454.28 33.14
238.36 454.21 33.04
238.13 454.15 32.96
238.94 453.18 28.28
239.27 452.79 26.39
237.9 454.08 32.87
238.23 453.69 30.97
237.39 454.35 34.41
235.93 455.78 41.58
236.56 455.02 37.91
237.99 453.27 29.44
235.6 455.86 42.17
236.0 455.03 38.41
235.17 455.73 42.01
237.0 453.43 30.93
235.53 454.93 38.39
236.26 454.0 33.92
234.78 455.55 41.59
234.55 455.5 41.58
234.31 455.46 41.61
234.08 455.42 41.63
233.86 455.35 41.55
233.66 455.26 41.35
233.42 455.23 41.43
233.21 455.16 41.31
232.96 455.15 41.46
233.42 454.5 38.39
232.77 455.03 41.16
232.62 454.88 40.64
232.48 454.31 38.41
233.56 452.73 30.94
232.38 454.06 37.48
232.18 453.15 33.88
232.58 452.53 30.94
232.1 452.43 30.95
231.81 452.0 29.43
229.59 454.74 42.64
229.14 454.64 42.59
239.67 457.78 47.87
239.24 457.67 47.78
238.23 456.15 42.34
238.7 454.03 33.17
238.48 453.96 33.08
238.25 453.89 32.96
239.03 452.97 28.48
239.39 452.54 26.4
238.02 453.83 32.89
238.35 453.43 30.98
237.48 454.14 34.63
238.63 452.75 27.93
236.06 455.53 41.6
236.65 454.81 38.11
238.31 452.77 28.3
235.6 455.76 42.94
235.42 455.66 42.66
235.22 455.57 42.49
235.02 455.48 42.28
236.39 453.75 33.94
234.82 455.4 42.09
233.91 455.21 42.09
233.64 455.21 42.32
233.46 455.1 42.01
233.26 455.02 41.85
233.04 454.95 41.77
232.82 454.89 41.69
232.76 454.6 40.56
232.7 454.31 39.41
232.61 454.06 38.43
233.69 452.47 30.96
232.48 453.85 37.67
232.54 452.96 33.94
232.96 452.32 30.95
232.28 452.94 34.08
232.58 452.04 30.11
232.22 452.18 31.0
231.72 452.54 32.88
232.19 451.79 29.4
231.47 452.5 32.95
231.91 451.79 29.61
229.73 454.46 42.52
229.28 454.37 42.52
239.8 457.52 47.84
239.37 457.41 47.78
238.84 456.55 44.65
236.86 458.4 53.97
238.59 456.53 44.79
238.33 456.52 44.95
236.41 458.34 54.1
238.13 456.45 44.82
237.93 456.37 44.67
237.7 456.32 44.67
237.48 456.28 44.67
237.26 456.22 44.63
237.02 456.19 44.67
240.15 451.89 24.25
239.11 452.76 28.73
239.43 452.38 26.91
238.18 453.53 32.68
238.48 453.17 30.97
236.99 454.63 38.26
237.57 453.92 34.84
236.72 454.61 38.41
235.63 455.62 43.51
237.75 452.65 29.45
236.75 453.54 33.96
234.96 455.47 43.43
235.79 454.41 38.38
234.71 455.45 43.59
236.51 452.77 30.97
236.27 452.72 30.97
236.02 452.67 30.97
235.78 452.62 30.96
235.53 452.57 30.95
233.25 454.95 42.72
233.04 454.88 42.61
232.96 454.62 41.64
232.85 454.39 40.76
232.87 453.99 39.08
232.73 453.8 38.42
233.81 452.22 30.98
232.57 453.65 37.92
232.9 452.75 33.93
232.37 452.74 34.32
232.55 451.6 29.44
232.4 451.4 28.76
232.04 451.53 29.6
232.02 451.12 27.91
239.93 457.26 47.83
239.49 457.15 47.76
238.97 456.29 44.65
237.04 458.08 53.66
238.74 456.25 44.65
238.52 456.2 44.64
236.59 458.02 53.79
238.29 456.15 44.64
238.47 455.65 42.43
237.5 456.13 45.23
237.26 456.1 45.31
237.03 456.07 45.35
236.79 456.04 45.43
236.68 455.85 44.75
236.46 455.8 44.73
236.23 455.75 44.71
236.02 455.69 44.65
235.79 455.65 44.65
235.57 455.6 44.64
235.38 455.51 44.42
235.12 455.5 44.62
234.97 455.36 44.14
235.91 454.16 38.4
236.63 453.24 34.0
237.34 452.34 29.67
234.77 455.28 44.0
234.56 455.21 43.9
236.64 452.51 30.95
234.34 455.16 43.85
234.09 455.14 44.0
233.94 454.99 43.5
233.73 454.91 43.35
233.53 454.83 43.18
233.27 454.84 43.43
233.1 454.71 43.05
233.03 454.43 41.95
232.95 454.18 40.99
234.19 452.01 30.95
232.82 453.61 38.71
232.66 453.44 38.14
232.98 452.16 32.58
232.46 452.53 34.54
232.44 452.15 33.0
232.23 451.6 30.91
232.16 451.29 29.68
232.12 450.89 28.05
230.0 453.93 42.43
229.54 453.83 42.4
240.05 457.0 47.85
239.62 456.9 47.78
237.2 457.78 53.48
238.87 455.98 44.63
238.64 455.94 44.65
238.42 455.89 44.61
238.77 455.5 42.73
238.18 455.85 44.65
238.59 455.4 42.45
237.28 455.66 44.64
236.82 455.57 44.65
239.79 451.75 26.32
240.03 451.46 24.92
236.2 455.69 45.64
235.96 455.66 45.72
235.72 455.63 45.8
235.49 455.59 45.86
235.69 455.34 44.66
235.38 455.4 45.16
235.21 455.29 44.85
234.93 455.3 45.12
234.76 455.19 44.78
236.52 452.93 33.98
234.56 455.11 44.64
236.94 452.02 29.85
236.52 452.2 30.96
235.56 452.73 33.94
233.69 454.89 44.45
233.45 454.86 44.56
235.07 452.64 33.96
233.28 454.74 44.16
233.1 454.62 43.84
233.13 454.22 42.15
233.04 453.97 41.19
233.88 452.38 33.92
232.99 453.28 38.36
233.63 452.34 33.95
232.56 452.31 34.74
232.6 451.82 32.68
232.35 451.36 30.99
232.22 451.13 30.12
230.12 453.67 42.42
229.67 453.58 42.4
240.17 456.75 47.88
239.73 456.65 47.83
239.22 455.78 44.66
237.34 457.52 53.43
238.99 455.73 44.68
238.76 455.69 44.66
236.89 457.44 53.49
238.54 455.63 44.61
238.8 455.35 43.22
238.3 455.6 44.7
237.63 455.45 44.65
236.72 455.27 44.64
238.88 452.37 30.83
237.99 453.1 34.59
238.34 452.67 32.52
236.04 455.14 44.67
239.14 451.34 26.38
235.61 455.34 45.89
236.31 454.47 41.69
235.35 455.34 46.08
235.12 455.3 46.14
234.92 455.22 45.94
234.71 455.16 45.88
234.53 455.06 45.62
234.34 454.96 45.39
234.09 454.96 45.56
233.9 454.87 45.35
233.75 454.72 44.87
233.49 454.71 45.05
233.34 454.57 44.59
233.09 454.56 44.74
232.87 454.5 44.69
232.65 454.45 44.68
232.43 454.4 44.64
232.2 454.35 44.65
231.98 454.31 44.64
232.93 452.9 38.04
231.76 454.26 44.62
233.88 451.07 29.67
233.67 450.98 29.43
232.65 452.1 34.95
232.73 451.57 32.7
232.48 451.1 30.97
232.3 450.49 28.58
230.25 453.42 42.41
229.79 453.32 42.4
228.21 454.33 47.91
240.27 457.04 50.18
240.06 456.99 50.16
239.84 456.95 50.17
239.62 456.9 50.16
239.4 456.86 50.16
239.84 456.4 47.9
239.18 456.81 50.14
238.96 456.77 50.16
239.34 455.52 44.66
237.49 457.23 53.27
239.12 455.47 44.65
237.05 457.16 53.36
238.66 455.38 44.67
238.2 455.29 44.67
237.98 455.24 44.65
236.62 454.96 44.64
239.18 451.9 29.8
236.4 454.91 44.59
238.24 452.68 33.85
237.42 453.34 37.27
238.19 452.4 32.73
235.53 455.33 47.08
236.49 454.15 41.37
238.5 451.67 29.44
235.27 455.33 47.29
235.03 455.32 47.43
234.91 455.14 46.8
234.71 455.07 46.67
234.5 455.0 46.55
234.28 454.95 46.54
234.02 454.95 46.77
233.89 454.79 46.2
233.69 454.71 46.06
233.45 454.68 46.13
233.41 454.39 44.95
233.06 454.52 45.78
233.23 454.28 44.63
232.85 454.46 45.7
233.43 453.63 41.79
234.61 451.97 33.93
235.05 451.34 30.95
232.63 454.4 45.64
233.23 453.54 41.6
232.42 454.34 45.57
232.2 454.28 45.52
232.0 454.21 45.39
233.14 452.52 37.46
231.78 454.16 45.36
231.56 454.1 45.27
231.35 454.03 45.2
231.14 453.97 45.12
230.93 453.91 45.02
230.71 453.85 44.99
230.5 453.78 44.86
230.3 453.69 44.64
230.08 453.64 44.64
229.86 453.58 44.57
227.9 453.98 47.88
240.41 456.77 50.12
240.19 456.73 50.13
239.97 456.68 50.14
239.75 456.64 50.14
239.96 456.15 47.92
239.23 456.63 50.55
239.0 456.6 50.59
238.77 456.56 50.64
238.54 456.53 50.69
238.35 456.46 50.55
237.63 456.95 53.19
238.2 456.33 50.15
237.99 456.28 50.14
237.18 456.89 53.32
237.77 456.24 50.14
237.55 456.2 50.14
237.33 456.15 50.13
238.33 455.03 44.67
237.11 456.1 50.12
238.11 454.98 44.63
239.22 452.42 33.11
238.99 452.36 33.05
238.77 452.29 32.94
236.52 454.66 44.64
238.54 452.22 32.84
237.43 453.22 37.92
237.77 452.81 35.93
235.39 455.4 48.67
236.68 453.81 41.0
235.19 455.33 48.51
235.57 454.86 46.24
234.82 455.16 48.12
234.62 455.08 47.94
237.39 451.53 30.95
234.4 455.03 47.94
234.16 455.02 48.1
234.02 454.86 47.55
233.82 454.79 47.43
233.62 454.71 47.28
233.41 454.66 47.22
233.37 454.36 46.05
233.5 453.82 43.66
234.3 452.7 38.39
234.97 451.76 33.92
233.13 453.97 44.63
234.06 452.65 38.39
233.32 453.33 41.81
232.46 453.83 44.61
234.2 451.28 32.59
233.13 452.47 38.39
233.96 451.23 32.59
233.06 452.17 37.24
231.78 453.7 44.62
232.85 451.67 35.34
232.81 451.32 33.93
229.85 455.53 53.81
232.76 450.97 32.52
232.48 450.98 32.8
232.73 450.59 30.94
230.43 453.42 44.59
230.21 453.38 44.6
229.98 453.33 44.6
230.04 452.81 42.4
228.48 453.78 47.73
228.03 453.71 47.81
240.53 456.52 50.14
240.31 456.47 50.14
240.1 456.42 50.13
239.88 456.38 50.12
240.22 456.03 48.39
239.65 456.34 50.14
240.08 455.91 48.0
238.77 456.16 50.14
237.76 456.69 53.18
239.37 454.95 44.63
239.14 454.91 44.64
237.31 456.63 53.29
237.76 456.13 50.87
238.92 454.86 44.63
237.53 456.1 50.92
237.31 456.06 50.96
237.08 456.03 50.99
237.02 455.81 50.15
236.78 455.78 50.24
236.58 455.72 50.14
236.36 455.68 50.15
236.15 455.63 50.12
235.93 455.58 50.13
235.71 455.54 50.12
235.49 455.5 50.12
237.84 452.62 36.26
235.54 455.13 48.55
235.2 455.23 49.25
235.48 454.87 47.53
237.41 452.12 34.54
234.78 455.11 49.14
234.53 455.1 49.3
234.29 455.09 49.43
234.84 454.04 44.65
235.83 452.73 38.39
236.54 451.8 33.95
234.62 453.99 44.61
236.43 451.58 33.13
233.79 454.74 48.42
233.55 454.73 48.57
233.43 454.55 47.92
233.3 454.37 47.29
233.47 454.14 46.19
233.61 453.59 43.82
235.54 450.88 30.99
235.3 450.82 30.94
233.03 453.67 44.62
234.82 450.72 30.93
232.58 453.59 44.64
234.32 451.05 32.68
233.25 452.21 38.39
234.54 450.31 29.43
233.16 451.96 37.44
234.3 450.25 29.41
234.49 449.96 28.06
234.05 450.2 29.38
234.26 449.89 27.92
231.68 453.4 44.61
232.94 451.47 35.6
232.93 451.07 33.94
233.77 449.78 27.9
230.0 455.24 53.63
232.89 450.71 32.46
233.52 449.73 27.89
231.01 453.26 44.62
232.8 450.42 31.34
230.56 453.17 44.6
230.33 453.13 44.62
230.11 453.08 44.61
230.16 452.57 42.43
228.61 453.53 47.73
228.16 453.45 47.78
240.66 456.26 50.15
240.44 456.22 50.15
240.22 456.17 50.17
240.0 456.13 50.16
239.56 456.04 50.15
239.11 455.96 50.18
237.88 456.45 53.23
239.5 454.7 44.66
238.24 455.78 50.16
239.28 454.65 44.62
237.44 456.37 53.28
239.04 454.61 44.66
238.81 454.56 44.67
239.0 454.05 42.4
237.36 455.6 50.16
236.98 455.74 51.06
236.76 455.7 51.1
237.91 454.37 44.64
236.53 455.67 51.15
236.3 455.64 51.21
236.08 455.6 51.24
235.86 455.56 51.25
237.0 454.19 44.64
239.0 451.8 33.05
235.72 455.42 50.78
235.61 455.25 50.16
236.55 454.1 44.63
235.36 455.24 50.36
235.13 455.21 50.43
235.0 455.06 49.88
234.82 454.97 49.69
234.62 454.9 49.54
234.43 454.82 49.38
234.19 454.81 49.53
233.92 454.83 49.84
233.66 454.83 50.06
233.84 454.59 48.92
233.57 454.63 49.3
233.43 454.47 48.75
233.58 453.91 46.33
233.74 453.33 43.8
234.97 451.23 34.06
235.08 451.07 33.32
233.52 452.9 42.19
232.94 453.37 44.63
233.45 452.25 39.54
234.47 450.76 32.55
233.38 451.96 38.41
234.24 450.69 32.42
233.27 451.73 37.56
234.02 450.61 32.27
233.83 450.48 31.92
233.05 451.26 35.78
233.62 450.38 31.66
231.59 453.1 44.62
230.15 454.96 53.53
232.99 450.5 32.68
229.93 454.92 53.54
231.13 453.01 44.64
232.89 450.23 31.66
233.2 449.74 29.35
229.72 454.88 53.54
232.74 450.03 30.95
230.69 452.92 44.62
230.46 452.87 44.62
230.24 452.83 44.61
230.29 452.31 42.42
228.74 453.28 47.72
228.29 453.2 47.77
240.79 456.0 50.15
240.58 455.96 50.14
240.35 455.92 50.16
240.13 455.87 50.15
239.47 455.74 50.16
238.01 456.19 53.23
239.63 454.45 44.68
239.4 454.4 44.68
237.57 456.12 53.3
239.18 454.35 44.64
237.72 455.38 50.13
237.82 454.07 44.64
236.63 455.16 50.11
237.36 453.98 44.65
235.96 455.03 50.15
238.88 451.51 33.12
235.53 455.26 51.45
235.32 455.2 51.39
235.09 455.18 51.46
234.89 455.11 51.38
236.05 453.64 44.33
236.69 452.85 40.49
234.73 455.0 51.04
236.43 452.84 40.68
234.54 454.92 50.87
236.45 452.47 39.12
234.3 454.9 50.99
234.17 454.74 50.44
236.09 452.22 38.41
233.98 454.66 50.27
233.73 454.67 50.48
233.53 454.6 50.38
233.35 454.51 50.16
233.12 454.48 50.21
233.69 453.69 46.49
232.91 454.42 50.13
232.7 454.37 50.13
232.48 454.33 50.12
232.26 454.29 50.13
232.05 454.24 50.11
233.55 452.04 39.75
231.83 454.2 50.11
233.47 451.76 38.68
231.61 454.15 50.09
233.32 451.6 38.12
233.77 450.93 34.99
233.35 451.15 36.24
233.16 451.02 35.87
233.43 450.61 33.94
231.49 452.8 44.64
229.86 454.61 53.46
230.82 452.67 44.63
230.63 452.56 44.36
230.37 452.57 44.61
228.86 453.03 47.77
228.42 452.95 47.8
240.71 455.7 50.15
240.49 455.66 50.14
240.27 455.61 50.12
239.83 455.52 50.14
240.28 455.06 47.82
239.39 455.43 50.13
238.14 455.94 53.27
237.7 455.87 53.32
239.02 454.12 44.98
239.51 453.58 42.37
237.85 455.13 50.13
238.79 454.08 45.02
238.55 454.05 45.12
238.32 454.01 45.11
238.16 453.89 44.74
237.95 453.82 44.65
237.71 453.79 44.73
236.54 454.86 50.12
236.32 454.82 50.15
236.1 454.77 50.12
235.25 455.2 52.61
235.05 455.13 52.48
235.59 454.47 49.29
234.88 455.04 52.25
235.96 453.68 45.7
236.16 453.43 44.52
234.68 454.97 52.12
235.01 454.56 50.13
236.15 453.11 43.18
234.49 454.9 51.97
235.9 453.09 43.32
234.25 454.89 52.14
235.96 452.67 41.52
234.1 454.76 51.71
235.77 452.58 41.31
233.91 454.69 51.58
235.01 453.23 44.62
233.71 454.62 51.46
233.5 454.57 51.44
233.29 454.51 51.37
233.09 454.45 51.28
232.88 454.4 51.25
233.9 452.97 44.48
232.67 454.34 51.19
232.46 454.29 51.15
232.25 454.24 51.11
232.04 454.19 51.07
231.83 454.13 51.01
231.62 454.08 50.96
233.46 451.34 38.1
231.44 453.99 50.75
233.37 451.07 37.04
231.28 453.85 50.31
231.08 453.78 50.19
230.88 453.73 50.11
230.66 453.68 50.11
230.0 454.34 53.39
230.45 453.63 50.09
230.23 453.59 50.11
230.01 453.55 50.09
230.73 452.37 44.61
229.79 453.5 50.09
230.51 452.32 44.6
229.58 453.45 50.05
228.99 452.79 47.79
228.55 452.71 47.82
240.85 455.45 50.16
240.63 455.4 50.15
240.41 455.35 50.14
240.19 455.31 50.13
239.96 455.27 50.15
238.25 456.25 55.63
238.04 456.21 55.64
237.84 456.16 55.59
237.83 455.62 53.35
238.21 454.92 50.14
237.78 454.82 50.11
237.97 453.71 45.33
237.73 453.67 45.39
237.49 453.65 45.47
236.46 454.56 50.12
237.03 453.57 45.53
236.94 453.36 44.74
235.25 455.11 53.4
235.49 454.5 50.68
235.69 454.25 49.46
235.9 453.68 46.91
236.07 453.45 45.85
234.65 454.94 53.17
236.01 453.2 44.86
234.4 454.93 53.34
234.92 454.26 50.15
235.75 453.2 45.07
235.59 453.07 44.67
234.49 454.17 50.12
235.37 453.02 44.65
233.87 454.66 52.68
235.14 452.98 44.64
233.67 454.6 52.57
234.92 452.93 44.63
233.66 454.28 51.26
233.57 454.07 50.46
234.52 452.76 44.28
233.73 453.5 47.99
233.19 453.91 50.11
233.79 452.7 44.61
233.84 452.27 42.8
232.53 453.78 50.12
233.77 452.0 41.72
233.76 451.62 40.17
232.89 452.52 44.63
234.56 450.05 33.01
231.99 452.35 44.65
230.57 454.17 53.35
230.8 453.43 50.1
230.14 454.08 53.35
231.31 452.21 44.62
230.34 453.38 50.28
230.08 453.41 50.61
230.86 452.12 44.62
229.87 453.35 50.57
230.64 452.07 44.59
229.66 453.3 50.51
229.45 453.24 50.46
229.24 453.19 50.43
229.06 453.08 50.12
228.85 453.04 50.1
228.63 452.99 50.1
228.42 452.94 50.06
240.98 455.19 50.16
240.76 455.15 50.17
240.54 455.1 50.15
240.32 455.06 50.16
238.39 456.0 55.64
238.18 455.96 55.64
237.92 455.96 55.86
237.69 455.94 55.96
237.47 455.91 56.04
237.3 455.82 55.79
237.12 455.74 55.64
236.91 455.7 55.63
236.7 455.66 55.63
236.49 455.61 55.62
236.28 455.57 55.61
236.07 455.52 55.59
236.81 454.36 50.16
236.37 454.27 50.14
236.91 453.3 45.71
235.23 455.05 54.31
235.02 455.01 54.34
234.9 454.85 53.79
234.72 454.77 53.57
235.95 453.2 46.05
234.53 454.69 53.43
235.71 453.18 46.2
234.32 454.65 53.4
234.85 453.96 50.12
235.59 453.01 45.57
234.04 454.69 53.82
235.37 452.95 45.51
233.8 454.68 53.98
235.16 452.88 45.38
233.68 454.52 53.4
233.57 454.34 52.73
233.73 453.78 50.31
233.84 453.29 48.17
233.98 452.74 45.8
233.11 453.61 50.11
233.92 452.46 44.66
234.17 452.11 43.01
232.89 453.57 50.12
233.96 452.04 42.9
232.8 452.23 44.63
231.8 453.35 50.11
232.35 452.14 44.63
230.71 453.91 53.34
231.15 453.22 50.13
230.28 453.83 53.35
231.23 451.91 44.62
232.77 449.41 33.0
230.29 453.04 50.09
231.0 451.86 44.61
230.78 451.82 44.62
230.55 451.77 44.62
229.2 452.83 50.11
228.98 452.78 50.09
228.77 452.74 50.1
228.55 452.69 50.08
240.68 454.85 50.18
240.4 454.87 50.47
240.17 454.83 50.5
240.0 454.73 50.25
239.78 454.69 50.24
238.53 455.74 55.61
238.32 455.69 55.61
238.11 455.65 55.61
237.9 455.61 55.62
237.69 455.56 55.58
238.08 455.13 53.47
239.43 452.76 42.54
236.83 455.42 55.69
239.19 452.72 42.58
236.49 455.52 56.39
236.26 455.49 56.48
236.13 455.36 56.03
235.96 455.28 55.83
235.72 455.27 55.99
235.56 455.17 55.7
235.36 455.11 55.64
235.15 455.07 55.63
234.94 455.02 55.63
235.91 453.81 49.81
234.81 454.88 55.15
235.91 453.5 48.52
236.09 453.27 47.43
234.62 454.81 54.99
235.88 453.22 47.37
234.43 454.74 54.86
234.18 454.75 55.13
234.08 454.57 54.45
235.34 452.92 46.56
233.89 454.49 54.28
235.13 452.86 46.49
233.68 454.45 54.28
233.68 454.12 52.94
234.62 452.85 46.86
233.82 453.59 50.62
233.95 453.07 48.35
233.93 452.74 47.0
234.1 452.52 45.93
233.25 453.35 50.1
233.89 452.45 45.85
233.03 453.3 50.07
233.69 452.37 45.64
233.47 452.31 45.59
233.27 452.24 45.48
233.16 452.02 44.65
232.86 452.09 45.16
232.69 451.97 44.81
231.72 453.05 50.1
232.49 451.89 44.66
231.51 453.01 50.09
232.26 451.85 44.68
230.85 453.66 53.34
232.03 451.8 44.68
230.42 453.58 53.35
231.37 451.65 44.6
231.14 451.61 44.61
230.21 452.74 50.08
230.91 451.57 44.63
230.69 451.52 44.61
229.55 452.62 50.1
229.34 452.57 50.07
229.12 452.53 50.07
228.9 452.49 50.1
228.69 452.44 50.09
239.63 454.47 50.63
238.46 455.44 55.62
238.26 455.38 55.55
238.04 455.35 55.61
238.72 454.33 50.82
237.61 455.27 55.61
238.62 454.16 50.18
238.4 454.11 50.15
237.19 455.19 55.62
238.14 454.11 50.38
237.96 454.03 50.2
237.73 453.99 50.22
237.53 453.93 50.14
236.35 455.02 55.61
237.31 453.89 50.13
235.51 455.13 56.77
235.7 454.91 55.69
235.29 455.1 56.83
235.14 455.0 56.52
234.88 455.01 56.81
235.07 454.78 55.67
235.46 454.29 53.35
235.65 454.05 52.18
235.81 453.54 49.96
235.98 453.33 48.92
234.55 454.82 56.29
235.56 453.53 50.11
234.44 454.65 55.65
235.51 453.28 49.09
234.24 454.6 55.61
234.03 454.56 55.61
233.78 454.56 55.83
233.6 454.48 55.65
234.47 453.32 50.13
233.4 454.43 55.6
233.19 454.39 55.6
232.98 454.35 55.6
232.77 454.31 55.61
232.56 454.26 55.6
233.38 453.11 50.13
232.35 454.22 55.57
232.95 453.01 50.11
231.86 452.8 50.1
231.64 452.76 50.13
230.98 453.41 53.36
232.1 451.66 45.2
231.89 451.6 45.11
230.56 453.32 53.36
231.67 451.53 45.02
231.46 451.47 44.95
231.25 451.41 44.87
231.05 451.31 44.62
230.12 452.45 50.11
230.83 451.27 44.6
229.91 452.41 50.09
230.66 450.7 42.38
229.26 452.28 50.09
229.07 452.19 49.87
228.83 452.19 50.08
228.87 451.66 47.85
240.98 453.77 47.82
240.76 453.72 47.79
240.54 453.67 47.79
238.59 455.18 55.62
238.39 455.13 55.59
238.17 455.1 55.61
238.17 454.55 53.35
237.54 454.97 55.62
238.18 453.97 50.94
237.95 453.94 50.99
237.73 453.9 51.03
237.5 453.87 51.08
237.27 453.83 51.12
236.27 454.72 55.6
237.06 453.78 51.08
237.01 453.55 50.14
235.85 454.63 55.6
236.78 453.51 50.17
236.57 453.46 50.16
235.12 454.92 57.4
235.39 454.59 55.8
235.37 454.31 54.67
235.56 454.08 53.56
234.74 454.81 57.23
235.87 453.39 50.43
234.5 454.8 57.37
235.7 453.29 50.14
235.48 453.24 50.13
234.17 454.61 56.86
235.26 453.19 50.12
233.96 454.56 56.86
235.04 453.15 50.12
233.76 454.52 56.84
233.55 454.47 56.81
233.36 454.41 56.73
233.16 454.36 56.67
232.96 454.3 56.61
232.77 454.24 56.51
232.57 454.19 56.45
232.37 454.13 56.37
232.18 454.06 56.24
231.99 453.99 56.1
232.87 452.72 50.11
231.82 453.89 55.83
231.64 453.81 55.64
231.44 453.76 55.61
231.23 453.72 55.6
231.02 453.67 55.59
230.81 453.63 55.58
230.61 453.58 55.53
230.26 452.2 50.09
230.04 452.16 50.1
229.39 452.03 50.11
229.18 451.97 50.04
228.96 451.94 50.07
229.01 451.4 47.82
240.66 453.43 47.86
238.73 454.92 55.62
238.52 454.89 55.63
238.31 454.84 55.62
237.88 454.76 55.63
237.46 454.67 55.62
239.32 451.97 42.88
236.19 454.42 55.61
236.73 453.48 51.28
236.5 453.45 51.32
235.13 454.83 58.18
235.3 454.62 57.16
235.5 454.37 55.99
234.89 454.83 58.39
235.66 453.87 53.76
235.83 453.35 51.48
234.93 454.18 55.64
235.6 453.33 51.58
235.46 453.18 51.06
234.16 454.54 57.79
234.51 454.09 55.6
235.27 453.11 50.92
233.92 454.54 57.96
235.05 453.07 50.93
233.79 454.4 57.49
234.81 453.05 51.06
233.84 454.02 55.88
233.82 453.72 54.67
234.0 453.47 53.47
233.46 453.88 55.6
234.09 452.68 50.12
232.83 453.75 55.59
232.2 453.63 55.58
232.79 452.41 50.08
232.35 452.34 50.12
231.15 453.42 55.6
230.94 453.38 55.61
230.74 453.34 55.59
230.61 451.99 50.1
231.15 450.26 42.51
229.96 451.87 50.13
229.53 451.78 50.11
229.31 451.73 50.1
229.09 451.69 50.1
241.22 453.28 47.98
240.77 453.2 47.99
238.86 454.67 55.62
238.65 454.62 55.63
238.44 454.58 55.62
238.23 454.54 55.62
239.89 451.83 43.03
237.39 454.37 55.6
239.43 451.74 43.03
236.54 454.21 55.62
236.12 454.12 55.62
235.04 454.85 59.49
235.41 454.4 57.33
234.87 454.76 59.28
234.7 454.68 59.08
235.79 453.31 52.52
234.53 454.6 58.88
235.5 453.37 52.99
234.28 454.61 59.11
235.41 453.16 52.23
234.65 453.83 55.6
235.22 453.09 52.08
233.9 454.48 58.91
235.03 453.02 51.92
233.78 454.33 58.4
234.76 453.04 52.26
233.93 453.81 56.12
233.91 453.52 54.91
234.09 453.28 53.78
234.07 452.98 52.54
234.23 452.75 51.49
233.38 453.58 55.61
234.03 452.69 51.4
233.18 453.54 55.6
233.83 452.63 51.29
233.63 452.56 51.18
233.42 452.51 51.15
233.57 452.3 50.14
233.35 452.25 50.13
233.09 452.27 50.41
232.13 453.33 55.6
232.92 452.17 50.14
232.69 452.14 50.2
232.48 452.09 50.18
231.5 453.21 55.6
232.26 452.04 50.14
231.29 453.16 55.58
231.08 453.12 55.57
230.87 453.08 55.58
230.66 453.04 55.57
231.4 451.86 50.1
230.96 451.78 50.13
231.27 450.02 42.58
229.88 451.56 50.09
230.82 449.92 42.55
229.67 451.52 50.08
229.45 451.47 50.08
229.23 451.43 50.08
229.02 451.39 50.07
238.53 454.37 55.86
238.31 454.34 55.93
238.08 454.31 55.99
237.94 454.2 55.65
237.72 454.16 55.66
237.51 454.12 55.66
237.3 454.08 55.63
237.1 454.03 55.61
236.89 453.99 55.6
236.04 453.82 55.61
235.32 454.41 58.64
235.66 453.68 55.34
234.62 454.69 60.38
235.63 453.42 54.29
234.42 454.65 60.36
235.2 453.65 55.59
235.42 453.38 54.29
234.26 454.55 60.07
235.31 453.2 53.63
234.09 454.46 59.85
235.13 453.12 53.45
233.88 454.43 59.89
234.57 453.53 55.61
233.9 454.09 58.46
234.65 453.1 53.74
234.04 453.59 56.27
234.01 453.31 55.15
233.52 453.32 55.59
233.31 453.28 55.6
233.13 452.16 51.1
232.91 452.12 51.1
232.05 453.03 55.58
232.7 452.07 51.05
231.84 452.99 55.59
232.49 452.01 50.99
232.28 451.96 50.95
231.42 452.91 55.59
232.07 451.91 50.92
231.22 452.86 55.56
231.0 452.82 55.58
230.8 452.78 55.56
230.88 452.27 53.39
231.23 451.69 50.71
231.06 451.59 50.4
230.87 451.49 50.15
230.65 451.46 50.19
230.44 451.41 50.19
230.23 451.36 50.13
230.95 449.68 42.61
229.8 451.26 50.09
229.58 451.22 50.08
229.36 451.18 50.09
229.15 451.14 50.1
229.21 450.58 47.73
241.21 452.78 48.27
240.77 452.69 48.25
237.54 453.98 56.23
237.32 453.96 56.29
237.1 453.93 56.38
236.88 453.9 56.4
236.81 453.69 55.62
236.6 453.65 55.62
236.34 453.66 55.86
236.17 453.57 55.64
235.0 454.71 61.3
235.22 454.44 60.03
235.58 453.7 56.67
235.74 453.5 55.67
235.54 453.45 55.63
235.33 453.4 55.61
235.12 453.36 55.61
234.04 454.44 60.98
234.93 453.29 55.48
233.86 454.38 60.86
234.78 453.18 55.13
233.95 453.96 59.04
234.49 453.24 55.61
233.98 453.6 57.55
234.48 452.93 54.34
234.1 453.11 55.4
233.86 453.11 55.61
232.18 452.79 55.63
231.76 452.7 55.59
231.35 452.61 55.59
231.14 452.57 55.59
230.93 452.53 55.57
230.73 451.29 50.6
230.52 451.24 50.56
230.31 451.19 50.52
231.29 449.51 42.77
230.1 451.13 50.46
229.89 451.08 50.41
229.72 450.97 50.08
229.5 450.93 50.1
229.28 450.89 50.12
241.3 452.56 48.45
240.87 452.46 48.39
238.82 453.27 53.43
238.4 453.18 53.37
236.55 453.6 56.61
236.32 453.57 56.7
236.11 453.55 56.75
235.3 454.24 60.28
235.61 453.86 58.45
235.67 453.49 56.88
235.48 453.42 56.75
235.31 453.33 56.51
234.27 454.35 61.57
235.14 453.24 56.26
234.1 454.28 61.41
234.9 453.23 56.44
233.94 454.17 61.1
234.11 453.64 58.78
234.18 453.24 57.03
234.37 452.98 55.84
234.19 452.9 55.63
233.15 452.69 55.6
232.72 452.61 55.62
232.51 452.57 55.63
231.68 452.4 55.6
231.47 452.36 55.6
231.26 452.32 55.59
231.05 452.27 55.58
231.4 449.28 42.89
230.95 449.18 42.84
241.38 452.33 48.63
238.5 452.93 53.41
235.36 454.04 60.56
235.57 453.49 58.1
234.69 454.3 62.17
234.48 454.26 62.2
235.23 453.32 57.67
235.05 453.24 57.52
234.1 454.16 62.09
234.82 453.22 57.62
234.06 453.91 61.1
234.69 453.09 57.17
234.16 453.47 59.18
234.5 453.02 57.01
234.27 453.0 57.15
234.11 452.9 56.84
233.93 452.83 56.72
233.73 452.77 56.63
233.54 452.71 56.52
233.35 452.64 56.41
233.46 452.48 55.64
233.22 452.48 55.83
233.04 452.4 55.66
232.84 452.35 55.6
232.62 452.31 55.63
232.41 452.28 55.65
232.21 452.23 55.61
231.58 452.1 55.59
231.37 452.06 55.59
231.16 452.02 55.59
231.49 449.05 43.02
231.05 448.95 42.95
229.78 449.88 47.85
229.35 449.79 47.81
239.01 452.79 53.61
238.6 452.68 53.49
235.29 454.29 62.84
235.1 454.24 62.77
235.43 453.84 60.83
235.42 453.55 59.67
235.12 453.34 59.03
234.32 454.05 62.61
234.94 453.26 58.83
234.13 454.0 62.57
234.69 453.28 59.14
233.95 453.94 62.47
234.23 453.27 59.44
232.25 452.07 56.09
232.05 452.02 56.01
231.85 451.96 55.94
231.66 451.89 55.82
231.48 451.8 55.6
231.27 451.76 55.58
231.07 451.71 55.56
231.16 451.18 53.29
229.89 449.63 47.86
235.2 453.99 62.79
235.3 453.87 62.22
235.04 453.9 62.58
234.78 453.93 62.92
234.58 453.9 62.93
234.37 453.87 62.97
234.18 453.82 62.95
234.48 453.12 59.79
234.27 453.1 59.87
231.69 451.01 53.29
229.77 449.35 47.95
229.33 449.26 47.93
234.52 453.25 61.46
234.35 453.18 61.29
231.78 450.77 53.37
229.42 449.02 48.03
231.45 450.45 53.45
229.94 448.89 48.22
229.51 448.79 48.16
238.7 451.71 54.04
231.75 450.24 53.49
231.32 450.16 53.51
230.02 448.67 48.37
229.59 448.57 48.3
239.17 451.59 54.31
238.76 451.48 54.23
231.84 450.0 53.6
231.41 449.92 53.61
238.82 451.26 54.43
231.92 449.76 53.7
231.49 449.69 53.74
239.29 451.16 54.82
232.01 449.54 53.87
231.59 449.45 53.84
231.57 448.97 54.19
232.08 448.86 54.48
