816.31 883.21 47.57
819.49 881.98 47.76
819.67 881.9 47.71
819.84 881.84 47.73
820.02 881.77 47.79
820.2 881.74 48.02
820.38 881.62 47.67
820.56 881.54 47.63
820.45 881.23 47.64
820.17 881.92 51.31
820.28 881.3 47.67
819.99 881.99 51.32
820.05 881.63 49.17
820.1 881.38 47.69
819.71 881.74 49.01
819.57 881.58 47.65
818.52 884.14 61.28
818.77 882.47 51.34
816.74 882.7 47.71
816.56 882.77 47.66
816.38 882.83 47.65
816.2 882.9 47.65
816.03 882.97 47.66
815.85 883.04 47.66
815.68 883.11 47.63
815.55 882.88 47.63
815.72 882.82 47.64
815.89 882.82 48.08
816.01 883.27 51.27
816.07 882.68 47.64
816.19 883.2 51.28
816.6 882.51 47.91
817.41 882.72 51.27
817.46 882.31 48.79
817.63 882.27 49.01
817.93 882.51 51.29
817.97 882.23 49.6
818.11 882.44 51.29
818.15 882.16 49.56
818.5 882.03 49.61
818.56 883.82 61.18
818.85 881.89 49.63
819.51 881.88 51.25
819.85 881.74 51.24
819.89 881.52 49.92
820.07 881.42 49.71
820.13 881.07 47.66
820.56 881.48 51.32
820.4 881.32 51.29
819.89 881.44 50.79
819.92 881.3 49.93
819.98 880.91 47.66
819.71 881.58 51.21
818.83 884.01 64.45
819.2 881.64 50.34
818.24 883.72 61.16
817.78 882.35 51.24
817.61 882.41 51.24
817.11 882.36 49.63
816.93 882.43 49.62
816.76 882.49 49.61
816.58 882.56 49.62
816.4 882.63 49.62
816.2 882.97 51.24
816.23 882.69 49.57
815.85 883.12 51.3
815.91 882.52 47.67
815.73 882.59 47.65
815.55 882.66 47.63
815.6 882.17 47.71
815.72 882.68 51.24
815.89 882.6 51.19
815.92 882.34 49.61
816.08 882.52 51.17
816.25 882.46 51.18
816.43 882.38 51.14
816.6 882.31 51.14
816.77 882.24 51.16
816.95 882.18 51.17
817.12 882.11 51.18
817.3 882.04 51.17
817.47 882.04 51.58
817.64 881.96 51.54
817.98 881.87 51.83
818.36 883.7 64.42
818.7 881.48 51.15
819.02 881.54 52.36
819.19 881.48 52.38
819.36 881.46 52.67
819.78 880.91 50.22
819.92 881.01 51.27
820.41 882.24 62.58
820.24 882.31 62.59
820.08 882.38 62.59
819.9 882.45 62.61
819.57 882.57 62.52
819.41 882.59 62.26
819.78 880.45 49.62
819.52 881.03 52.63
819.38 880.85 51.16
818.58 883.8 67.82
818.8 881.45 53.47
818.62 881.54 53.61
817.99 883.5 64.48
817.28 881.67 51.12
817.07 882.01 52.7
817.1 881.74 51.1
816.9 882.07 52.67
816.93 881.8 51.07
816.55 882.21 52.66
816.21 882.27 52.21
816.06 882.16 51.14
815.88 882.24 51.21
815.73 882.05 49.63
815.53 882.39 51.26
815.58 881.86 48.03
815.35 882.46 51.31
815.8 881.72 49.63
815.96 881.78 50.4
816.09 882.06 52.49
816.26 882.05 52.9
816.42 882.11 53.65
817.09 883.26 62.62
817.29 881.78 53.74
817.25 883.19 62.63
817.45 881.73 53.88
817.42 883.13 62.66
817.62 881.69 54.06
817.59 883.07 62.68
818.09 882.87 62.71
818.26 882.81 62.76
818.29 883.6 67.84
818.61 882.68 62.77
818.8 883.39 67.77
820.35 882.24 65.86
820.18 882.31 65.87
820.02 882.37 65.87
819.85 882.44 65.89
819.68 882.51 65.89
820.13 880.04 51.37
819.51 882.57 65.87
819.96 880.11 51.31
819.34 882.63 65.84
819.78 880.17 51.28
819.14 881.12 55.69
818.96 881.18 55.65
818.8 881.19 55.29
818.34 883.05 65.94
818.63 881.22 55.08
818.12 883.44 67.89
818.25 882.59 62.81
818.09 882.66 62.83
817.53 883.2 64.91
817.43 881.65 54.8
817.25 881.75 54.94
816.56 881.96 54.57
816.39 881.97 54.19
816.25 881.84 53.04
816.09 881.79 52.28
815.93 881.67 51.15
815.76 881.75 51.19
815.74 881.24 50.95
815.9 881.32 51.85
816.06 881.39 52.67
816.51 881.7 55.81
816.48 883.3 65.86
816.68 881.72 56.35
816.64 883.24 65.9
816.85 881.64 56.26
817.02 881.6 56.46
817.19 881.56 56.64
817.35 881.53 56.87
817.42 883.31 68.32
817.72 882.3 62.7
817.98 882.72 65.98
818.21 881.2 56.91
818.23 882.14 62.93
818.39 881.09 56.71
818.72 881.05 57.26
818.89 880.97 57.21
819.42 879.81 51.14
819.46 879.55 49.59
819.07 882.67 68.42
819.71 882.53 69.17
819.87 882.46 69.15
820.04 882.39 69.12
820.21 882.33 69.13
820.37 882.26 69.12
819.2 879.8 52.66
819.24 879.58 51.34
818.55 882.68 69.26
818.92 880.52 56.52
818.94 880.39 55.73
818.7 880.89 58.32
818.22 882.81 69.3
818.31 882.3 66.22
818.06 882.87 69.26
818.36 881.01 58.22
817.89 882.94 69.27
817.73 883.0 69.26
817.82 882.45 65.99
817.56 883.07 69.27
817.4 883.13 69.21
817.56 882.04 62.71
817.07 883.25 69.15
816.9 883.3 69.09
816.74 883.38 69.14
816.84 881.47 57.31
816.66 881.55 57.34
816.36 881.41 55.71
816.21 881.24 54.25
816.05 881.21 53.68
815.89 881.11 52.66
815.74 880.98 51.43
815.22 881.16 51.26
815.1 880.85 51.24
815.3 880.51 49.61
815.45 880.71 51.2
815.63 880.65 51.3
815.78 880.8 52.65
816.09 880.92 54.22
816.24 881.1 55.72
816.26 880.94 54.7
816.55 881.23 57.3
816.69 881.39 58.67
816.85 881.35 58.85
817.03 881.28 58.85
817.44 881.74 62.76
817.69 882.16 66.08
818.03 880.95 59.3
817.93 882.57 69.3
818.1 882.49 69.24
818.26 882.45 69.4
818.73 880.59 58.8
818.79 880.27 56.87
818.82 880.07 55.69
819.35 878.9 49.61
819.39 878.7 48.41
819.47 879.11 51.28
819.65 879.05 51.32
819.82 878.77 51.38
819.65 878.83 51.32
819.3 878.95 51.24
819.35 878.68 49.62
819.4 878.4 47.99
819.08 879.26 52.67
819.11 879.1 51.68
818.78 880.08 57.09
818.82 879.85 55.73
818.24 882.24 69.48
818.33 881.72 66.38
817.91 882.38 69.51
818.17 880.79 60.06
817.75 882.4 69.26
818.01 880.81 59.81
817.67 881.99 66.42
817.51 881.98 65.96
817.41 881.61 63.35
817.26 881.56 62.69
817.33 881.09 59.86
817.15 881.18 60.0
816.99 881.23 59.89
816.83 881.22 59.42
816.67 881.18 58.75
816.53 881.01 57.33
816.22 880.88 55.72
816.08 880.71 54.3
815.97 880.26 51.14
815.76 880.58 52.66
815.62 880.41 51.24
815.44 880.47 51.18
815.09 880.62 51.25
814.99 880.22 51.28
815.17 880.15 51.25
815.2 879.87 49.59
815.36 880.0 50.79
815.52 880.0 51.21
815.67 880.17 52.66
815.98 880.34 54.5
816.12 880.47 55.71
816.43 880.66 57.71
816.58 880.77 58.77
816.86 881.02 61.06
816.99 881.23 62.71
817.02 881.01 61.44
817.14 881.29 63.49
817.19 880.96 61.54
817.24 881.64 65.98
817.36 880.9 61.55
817.39 881.67 66.57
817.52 880.85 61.66
817.68 880.85 62.06
817.65 882.05 69.61
817.85 880.8 62.18
818.03 880.67 61.78
818.17 880.72 62.51
818.19 880.58 61.68
818.24 881.27 66.15
818.31 880.83 63.55
818.3 881.78 69.57
818.71 879.44 55.72
818.28 880.98 66.77
818.19 880.63 64.33
818.22 880.41 63.02
818.01 880.74 64.56
817.87 880.68 63.84
817.7 880.72 63.66
817.39 881.73 69.26
817.36 880.89 63.91
817.03 881.01 63.79
816.88 880.91 62.81
816.91 880.69 61.49
816.77 880.61 60.61
816.62 880.5 59.59
816.47 880.43 58.76
816.33 880.3 57.57
816.02 880.13 55.71
815.87 880.05 54.8
815.72 879.93 53.67
815.57 879.83 52.65
815.42 879.65 51.17
815.26 879.6 50.43
815.09 879.54 49.62
814.72 879.95 51.31
814.59 879.61 51.31
814.77 879.54 51.27
814.94 879.46 51.25
814.97 879.19 49.61
815.3 879.31 51.16
815.44 879.49 52.65
815.6 879.52 53.25
815.64 879.16 51.11
815.75 879.62 54.26
815.9 879.79 55.71
816.05 879.88 56.7
816.2 879.92 57.34
816.34 880.09 58.76
816.49 880.17 59.61
816.64 880.31 60.9
816.76 880.53 62.6
816.79 880.34 61.47
816.99 881.12 66.87
817.01 880.97 65.99
817.17 880.92 66.08
817.56 878.4 51.16
817.24 881.49 69.9
817.47 880.07 61.49
817.6 880.21 62.7
817.65 880.84 66.83
817.83 880.76 66.73
817.98 880.71 66.84
818.08 880.14 63.47
818.12 879.92 62.13
818.15 880.64 66.82
818.21 880.29 64.77
818.48 878.73 55.58
818.96 877.85 51.23
819.01 877.58 49.62
819.14 877.79 51.25
819.31 877.73 51.3
819.48 877.67 51.39
819.32 877.51 51.29
819.14 877.58 51.28
818.38 880.85 70.07
818.41 880.71 69.29
818.96 877.64 51.24
818.24 880.78 69.29
818.28 880.59 68.2
818.16 880.36 66.44
818.2 880.12 65.04
818.48 878.54 55.72
817.95 880.7 68.02
818.01 880.35 65.97
818.08 879.96 63.68
817.78 880.8 68.24
818.23 878.14 52.52
818.03 878.34 53.33
818.06 878.14 52.13
818.09 877.97 51.15
817.63 879.79 61.48
817.89 878.19 52.04
817.92 878.05 51.16
817.23 881.3 70.03
817.43 880.06 62.71
817.72 878.23 51.86
817.08 881.24 69.25
817.13 880.95 67.54
816.98 880.95 67.15
817.01 880.73 65.88
816.76 880.33 62.69
816.64 880.05 60.59
816.48 879.99 59.86
816.33 879.88 58.77
816.2 879.7 57.3
816.33 878.68 51.18
815.89 879.57 55.71
815.81 878.89 51.17
815.29 879.09 51.17
815.11 879.17 51.22
814.65 878.93 51.25
814.82 878.86 51.26
815.17 878.72 51.23
815.32 878.89 52.68
815.35 878.64 51.18
815.49 878.86 52.93
815.7 878.5 51.22
815.77 879.19 55.73
815.87 878.44 51.26
815.93 879.29 56.75
815.95 879.12 55.72
816.08 879.33 57.43
816.37 879.58 59.75
816.46 878.91 55.73
816.51 879.7 60.82
816.6 879.11 57.34
816.64 879.94 62.7
816.66 879.76 61.59
816.74 880.31 65.27
816.78 880.07 63.86
816.8 879.87 62.69
816.88 879.39 59.83
816.83 880.7 68.01
816.86 880.51 66.86
816.95 880.99 70.07
817.1 880.94 70.2
817.34 879.46 61.45
817.27 880.88 70.21
817.39 880.16 65.97
817.51 879.39 61.44
817.84 879.3 61.66
817.94 879.64 64.07
817.98 879.41 62.76
818.12 880.38 69.25
818.16 880.2 68.16
818.67 877.32 51.25
818.26 880.48 70.18
818.21 880.09 70.21
818.07 880.0 69.3
818.1 879.84 68.38
817.97 879.71 67.27
818.0 879.49 65.96
817.88 879.3 64.47
817.54 879.47 64.68
817.4 879.39 63.78
816.89 880.6 70.18
817.39 877.42 51.35
816.75 880.51 69.23
816.77 880.38 68.45
816.83 879.96 66.0
816.89 879.63 64.04
816.55 879.73 63.86
816.58 879.54 62.71
815.47 878.17 51.29
815.29 878.25 51.33
815.12 878.31 51.29
814.95 878.37 51.25
814.42 878.59 51.33
814.59 878.14 51.33
816.57 879.15 62.7
816.61 879.89 67.48
816.65 879.68 66.23
816.72 880.16 69.45
816.98 879.51 66.01
817.06 879.99 69.25
817.15 879.44 65.97
817.3 879.51 66.79
817.46 879.44 66.8
817.58 878.75 62.71
817.62 879.39 66.85
817.79 879.32 66.87
817.82 879.18 66.04
817.89 879.61 68.95
817.93 879.4 67.69
818.03 879.74 70.08
818.05 879.61 69.3
818.09 879.5 70.2
817.95 879.4 69.23
817.86 879.05 66.83
817.72 878.98 66.01
817.48 879.42 68.18
817.32 879.51 68.31
817.14 879.6 68.49
816.99 879.59 68.01
816.63 879.93 69.26
816.67 879.67 67.75
816.52 878.51 62.71
816.52 879.55 69.26
816.6 879.0 66.0
816.65 879.64 70.18
816.82 879.58 70.19
816.98 879.51 70.19
817.15 879.45 70.2
817.35 878.25 63.16
817.58 878.71 66.62
817.84 879.02 69.26
817.37 878.39 66.47
817.13 877.94 63.03
816.6 879.25 69.97
816.55 878.64 65.99
816.63 878.13 62.99
816.51 877.73 62.74
816.55 877.5 61.36
817.05 877.31 61.44
817.09 878.02 66.02
817.32 878.45 69.29
817.47 878.47 69.83
817.71 877.13 62.0
817.27 878.25 69.37
817.31 877.18 62.73
816.87 877.87 65.97
816.97 877.31 62.73
816.46 877.51 62.68
816.29 877.58 62.7
816.12 877.64 62.68
815.95 877.71 62.69
815.63 877.76 62.14
816.21 877.51 64.81
816.34 877.65 66.0
816.38 877.44 64.77
816.68 877.53 66.08
816.85 877.44 65.99
817.01 877.37 65.98
817.07 877.91 69.52
817.18 877.32 66.05
817.11 877.27 67.99
816.9 877.58 69.4
816.95 877.32 67.89
816.79 877.38 67.89
816.62 877.45 67.9
