186.49 554.69 159.09
186.32 554.81 159.44
186.23 555.02 159.4
186.29 555.71 159.75
186.39 555.52 159.69
186.42 555.0 160.31
186.82 554.78 159.45
187.21 554.87 159.75
186.73 555.02 160.95
186.55 555.14 161.28
186.56 555.42 160.89
186.48 555.63 160.83
186.36 556.35 160.22
186.14 558.39 159.22
186.34 556.89 160.63
186.44 556.69 160.63
186.48 556.45 160.85
186.56 556.24 160.88
186.81 555.09 161.69
187.12 555.07 160.83
187.52 554.86 159.97
187.89 554.99 160.28
187.66 555.07 160.82
186.8 555.7 162.48
186.68 555.89 162.56
186.43 557.6 161.02
186.38 557.83 160.85
186.32 559.17 159.24
186.18 559.32 159.42
186.07 559.51 159.51
186.29 559.16 160.66
186.33 558.92 160.86
186.42 558.71 160.89
186.54 557.98 161.52
186.73 556.5 162.94
186.84 556.32 162.87
186.9 555.55 163.71
187.63 556.16 160.82
187.02 555.38 163.61
188.06 555.15 160.92
188.25 555.03 160.55
186.77 553.7 168.2
188.62 555.22 160.86
187.84 555.39 162.86
187.3 555.49 164.3
187.1 555.59 164.72
186.81 557.25 163.36
186.7 557.7 163.06
186.65 557.93 162.92
186.57 558.69 162.12
186.47 558.88 162.17
186.45 559.14 161.86
186.68 559.09 162.43
186.82 557.84 163.69
187.61 558.24 160.9
187.71 558.05 160.86
187.81 557.86 160.82
187.09 556.43 164.8
188.27 556.88 160.82
187.2 555.69 165.48
187.61 555.51 164.56
187.92 555.48 163.68
189.1 555.1 160.82
189.34 555.02 160.23
187.11 552.38 171.74
190.06 555.04 159.7
189.93 555.2 159.88
189.6 555.2 160.81
188.61 555.48 163.28
187.4 555.82 166.3
187.31 556.0 166.33
188.68 557.17 160.84
188.59 557.37 160.84
187.11 557.2 165.3
187.05 557.43 165.17
187.01 557.66 165.0
186.95 557.89 164.83
186.91 558.13 164.66
186.86 558.34 164.51
186.82 558.6 164.27
187.66 559.33 160.9
186.79 558.84 164.03
186.99 558.56 164.97
187.18 557.63 165.66
187.44 555.96 167.14
189.11 555.44 163.05
187.75 553.53 169.51
187.84 553.33 169.53
190.04 555.12 160.81
190.59 555.02 159.37
190.8 554.91 158.93
187.65 552.08 173.44
191.18 555.18 159.19
190.81 555.15 160.26
190.58 555.24 160.8
188.29 553.65 169.49
189.87 555.47 162.56
187.72 554.51 169.99
187.74 554.78 169.58
188.84 555.7 165.19
187.66 554.99 169.52
188.15 555.94 166.86
187.64 556.04 168.2
187.54 556.23 168.21
189.3 557.99 160.84
187.41 557.2 167.31
187.2 558.38 166.34
188.97 559.27 161.19
187.44 557.66 167.72
187.52 557.19 168.12
187.6 556.98 168.16
187.59 556.71 168.56
189.52 558.35 160.84
187.48 556.34 169.37
187.55 556.13 169.47
187.61 555.91 169.59
188.31 555.97 167.49
187.67 555.15 170.41
189.07 555.78 165.56
189.35 555.75 164.81
188.35 554.38 169.49
189.76 555.54 163.91
188.43 554.2 169.51
190.33 555.48 162.36
190.73 555.8 160.77
190.47 555.32 162.16
188.71 553.62 169.47
187.78 552.6 173.5
188.06 552.04 173.45
189.18 552.25 171.37
188.48 552.21 173.43
188.3 552.59 173.44
189.66 553.95 167.74
189.13 553.78 169.49
187.83 553.25 173.92
188.95 554.17 169.48
190.64 556.63 161.36
188.94 556.03 167.04
188.23 555.7 169.51
188.13 555.89 169.54
188.37 556.09 168.59
187.97 556.01 169.84
187.62 555.98 170.89
187.46 556.38 170.8
190.42 558.91 158.98
187.57 557.03 169.63
190.23 559.31 158.97
187.49 557.22 169.59
187.51 557.52 169.14
187.67 557.91 168.16
189.33 559.35 161.51
187.45 558.24 169.56
187.5 558.01 169.73
187.6 557.83 169.65
187.98 558.16 168.15
188.26 558.4 167.02
187.58 557.27 170.47
190.54 559.83 158.6
188.24 557.58 168.16
190.58 559.6 158.78
187.64 556.52 171.3
188.43 557.19 168.15
190.7 559.13 159.07
188.15 556.69 169.62
188.51 557.0 168.16
187.95 555.98 171.13
190.74 558.35 159.99
188.31 556.02 170.07
188.53 555.94 169.53
190.77 557.54 160.99
187.72 554.71 173.51
187.8 554.52 173.52
189.58 556.0 166.45
190.28 556.58 163.68
187.7 554.18 174.25
190.34 556.35 163.83
188.08 553.96 173.48
189.09 554.79 169.48
188.35 553.39 173.46
189.44 554.02 169.5
189.63 553.64 169.46
188.71 552.64 173.44
188.98 552.07 173.43
189.48 552.11 173.42
189.39 552.31 173.42
189.21 552.68 173.44
190.43 553.91 168.32
189.04 553.06 173.43
189.82 554.21 169.67
189.77 554.45 169.5
189.68 554.63 169.5
188.04 553.81 175.29
188.5 554.19 173.47
189.5 555.01 169.5
187.42 553.57 177.38
189.31 555.4 169.53
189.05 555.98 169.5
187.68 555.1 174.6
188.94 556.15 169.59
188.5 556.04 171.01
189.22 556.65 168.13
187.78 555.71 173.5
190.28 557.82 163.55
187.67 555.88 173.6
187.58 556.07 173.61
187.53 556.29 173.44
188.85 557.42 168.17
189.63 558.91 163.96
190.1 559.31 162.08
187.57 557.4 171.87
188.5 558.2 168.14
188.27 558.27 168.7
187.88 558.21 169.88
187.48 558.13 171.14
187.47 558.38 170.83
187.42 558.61 170.68
187.51 559.24 169.58
187.42 559.43 169.58
187.3 560.55 169.57
187.38 560.35 169.62
187.43 560.13 169.76
187.48 559.9 169.92
187.84 559.4 169.56
188.12 558.83 169.53
187.51 558.01 172.36
188.25 558.12 170.11
187.59 557.28 173.11
188.63 558.19 168.92
187.65 556.53 173.95
189.1 557.78 168.13
187.62 555.96 174.79
187.68 555.77 174.88
187.99 556.03 173.62
188.11 555.86 173.51
189.1 556.7 169.59
188.67 556.07 171.66
189.2 556.52 169.53
188.3 555.49 173.48
188.93 556.03 170.96
189.36 556.11 169.62
189.47 555.95 169.52
189.66 555.56 169.49
187.72 553.69 177.53
189.75 555.36 169.51
187.82 553.51 177.48
189.56 552.84 173.43
189.64 552.65 173.43
189.73 552.46 173.43
189.82 552.27 173.42
189.91 552.08 173.43
189.99 551.88 173.46
190.34 552.3 173.37
189.9 552.99 173.72
189.87 553.22 173.49
189.79 553.43 173.45
189.47 553.69 174.02
188.97 553.8 175.29
188.34 553.54 177.45
188.14 553.9 177.53
187.77 554.38 177.96
188.9 555.32 173.49
187.76 554.62 177.67
189.46 556.04 170.93
187.72 554.84 177.49
189.11 556.02 171.94
188.63 555.87 173.53
189.68 556.76 169.35
188.43 555.98 173.95
189.68 557.03 168.98
188.08 555.95 174.98
189.62 557.26 168.83
189.31 558.34 168.3
187.55 557.08 175.0
188.9 558.25 169.59
187.49 557.3 174.87
188.25 558.22 171.48
188.73 558.64 169.54
187.62 557.94 173.63
187.51 558.1 173.75
187.44 558.32 173.66
188.28 559.6 169.56
188.01 560.18 169.57
187.9 560.36 169.61
187.82 560.56 169.58
188.19 560.54 169.57
187.47 559.08 173.56
187.56 558.88 173.59
187.47 558.0 175.02
187.52 557.77 175.17
187.87 558.07 173.78
187.55 557.53 175.4
187.64 557.08 175.75
188.18 557.54 173.59
188.93 558.2 170.59
188.27 557.36 173.6
189.27 558.23 169.57
187.6 556.51 176.61
189.35 558.02 169.63
189.65 558.27 168.44
187.73 555.57 177.5
188.46 555.93 174.94
187.7 555.02 178.34
188.89 556.03 173.59
189.69 556.17 171.12
188.44 554.08 177.47
189.55 554.72 173.47
188.72 553.51 177.44
189.89 553.95 173.51
189.86 553.65 174.01
189.78 553.9 175.34
189.16 553.64 177.45
189.86 554.48 174.35
188.99 554.02 177.45
189.76 554.66 174.38
189.8 555.22 173.53
188.72 554.59 177.47
189.72 555.42 173.5
189.63 555.61 173.49
189.47 555.99 173.45
189.29 556.12 173.79
188.28 555.52 177.47
188.91 556.05 174.97
189.67 556.69 171.96
188.18 555.7 177.51
188.63 556.08 175.72
189.17 556.54 173.58
188.09 555.9 177.51
189.07 556.73 173.6
187.67 555.8 178.84
187.98 556.06 177.62
187.6 555.99 178.79
187.52 556.19 178.76
188.8 557.29 173.62
187.63 556.55 177.95
187.63 556.81 177.6
189.3 558.26 170.9
187.55 557.0 177.59
188.96 558.23 171.95
189.56 558.75 169.54
187.58 557.3 177.1
188.61 558.2 172.97
188.25 558.14 174.08
187.57 557.82 176.43
187.87 558.09 175.22
188.03 559.03 173.53
189.01 559.9 169.57
187.45 559.58 174.45
188.65 560.67 169.58
187.39 560.35 173.59
187.25 561.5 173.54
187.41 561.12 173.59
187.46 560.88 173.76
187.47 560.62 174.09
187.53 560.41 174.19
189.03 560.67 169.55
187.5 557.96 177.53
187.57 557.22 178.33
188.58 558.1 174.27
187.65 557.03 178.34
187.59 556.7 178.97
189.28 558.18 172.18
189.63 558.21 171.15
187.72 556.03 179.5
188.19 556.44 177.6
187.87 555.9 179.22
189.72 557.48 171.87
189.7 557.2 172.28
188.61 556.01 176.99
189.78 556.73 172.7
188.65 555.52 177.52
189.64 556.35 173.59
189.8 555.95 173.67
189.83 555.72 173.88
189.75 555.38 174.59
189.1 554.58 177.48
189.83 555.18 174.62
189.37 554.03 177.45
189.46 553.84 177.46
190.57 553.78 175.89
189.87 554.0 177.59
189.81 554.21 177.49
189.29 555.33 177.49
189.45 555.99 176.15
189.75 556.24 174.97
189.06 555.93 177.35
188.9 556.06 177.62
189.38 558.05 173.62
187.74 556.89 179.84
188.3 557.38 177.6
189.3 558.25 173.59
187.69 557.11 179.68
189.23 558.45 173.51
187.63 557.33 179.55
188.6 558.17 175.69
187.58 557.55 179.41
188.25 558.13 176.74
187.59 557.82 179.02
187.89 558.09 177.82
187.51 558.02 179.0
188.43 559.37 174.57
187.61 558.89 177.56
189.58 560.66 169.58
187.52 559.08 177.56
188.51 559.97 173.56
188.01 560.61 174.13
187.52 562.07 173.57
187.9 562.05 173.55
187.99 561.85 173.57
188.35 561.1 173.54
187.45 560.0 177.57
187.48 559.75 177.81
187.51 559.52 178.02
187.55 559.29 178.22
187.81 559.26 177.53
187.98 558.88 177.54
188.8 559.34 174.59
188.23 558.03 177.96
189.3 558.17 174.74
189.6 558.43 173.53
187.91 556.7 180.63
189.63 558.19 173.78
188.76 557.17 177.6
189.73 558.01 173.74
189.04 556.61 177.57
188.59 555.97 179.68
189.78 556.98 174.97
188.86 555.94 178.95
189.76 556.7 175.38
189.29 556.03 177.62
189.42 555.88 177.45
189.85 554.93 177.51
189.8 554.64 178.01
189.9 554.46 177.96
190.5 553.65 177.34
189.78 555.34 178.46
189.82 555.88 177.61
189.71 556.05 177.72
188.91 556.15 179.86
188.47 556.3 180.93
189.74 557.39 175.85
188.27 556.38 181.38
189.04 557.57 177.61
189.66 558.11 175.14
189.1 558.16 176.65
187.92 557.39 181.04
188.77 558.13 177.62
187.91 557.91 180.36
189.6 559.41 173.57
188.53 558.72 177.52
187.91 560.04 177.54
188.89 560.93 173.55
187.81 560.21 177.59
188.36 562.08 173.56
188.66 562.13 173.54
188.74 561.93 173.58
188.03 560.47 177.54
188.21 560.09 177.53
188.48 559.52 177.54
189.61 559.99 173.71
188.88 558.02 178.4
187.69 556.72 183.52
189.23 558.06 177.33
189.47 558.27 176.39
189.6 558.11 176.22
188.3 556.46 182.14
189.68 557.66 176.6
189.77 557.2 176.96
188.93 556.21 180.65
189.71 556.87 177.58
189.81 556.45 177.84
189.63 556.03 178.92
189.74 555.87 178.81
189.78 556.77 178.96
189.7 556.96 178.93
188.88 556.52 181.86
189.76 557.28 178.35
188.43 556.66 182.94
189.66 557.98 177.68
188.07 556.85 183.72
189.6 558.18 177.61
189.24 558.14 178.68
189.53 558.4 177.51
188.91 559.71 177.54
188.73 560.08 177.53
189.53 561.08 173.95
189.52 561.33 173.64
189.45 561.55 173.55
189.36 561.73 173.56
189.57 562.2 172.33
189.18 562.12 173.54
189.42 562.45 173.54
189.5 562.26 173.59
189.59 562.07 173.6
188.96 560.42 177.56
189.15 560.05 177.52
189.24 559.86 177.52
189.59 559.11 177.52
189.67 558.91 177.57
188.39 556.99 183.76
189.67 558.11 178.64
188.47 556.81 183.76
188.68 556.72 183.3
189.76 557.67 178.96
189.09 556.56 182.34
189.46 556.88 180.86
188.91 556.99 183.76
188.83 557.18 183.75
189.59 559.97 177.88
189.56 560.21 177.67
189.5 560.42 177.55
189.41 560.61 177.55
189.25 556.98 183.75
189.61 557.11 183.81
189.94 557.13 183.84
190.68 560.01 159.18
191.28 555.02 158.98
191.24 555.22 159.02
191.13 555.41 158.82
190.82 558.39 160.01
190.74 558.8 160.08
190.27 559.11 158.93
190.28 559.33 159.11
190.66 559.66 160.46
190.26 559.56 160.86
190.53 559.42 161.56
190.35 559.16 160.83
190.61 558.14 160.89
190.69 557.95 160.99
190.73 557.74 160.96
190.75 557.53 160.87
190.78 557.31 160.8
190.81 557.11 160.74
190.95 555.18 159.79
190.6 555.07 158.71
190.42 555.12 159.47
190.74 555.67 160.8
190.7 555.88 160.83
190.66 556.74 161.33
190.44 559.07 162.35
189.95 558.93 160.82
190.41 559.27 162.39
190.32 559.46 162.28
189.81 559.55 160.85
189.52 559.67 160.1
189.16 559.64 160.37
189.36 559.48 160.85
190.21 559.28 163.17
190.31 559.09 163.32
189.6 558.46 160.83
190.34 558.24 162.82
190.41 558.05 162.88
190.59 555.92 161.9
190.66 555.5 161.81
190.06 555.09 159.77
190.5 555.75 162.75
189.69 556.37 160.82
190.35 557.22 163.37
190.28 557.41 163.3
190.24 558.27 163.81
190.22 558.48 163.89
190.21 558.7 164.03
190.2 558.91 164.15
190.13 559.11 164.09
189.58 559.38 162.69
189.09 559.46 161.32
188.83 559.6 160.65
188.32 559.44 160.85
189.11 559.22 162.97
189.7 558.96 164.51
190.01 558.83 165.3
190.06 557.99 164.84
188.92 556.99 160.83
190.27 556.1 164.11
190.33 555.9 164.16
190.33 555.69 164.01
189.87 555.54 162.56
189.83 555.68 163.93
189.46 555.57 162.77
190.16 556.01 165.13
190.02 557.04 165.48
188.37 557.2 160.82
188.28 557.61 160.83
189.86 558.71 166.22
189.29 558.98 164.76
188.83 559.06 163.48
188.69 559.24 163.21
187.95 559.47 161.25
187.56 559.58 160.19
187.7 559.83 160.77
186.91 559.55 159.74
187.33 559.44 160.87
188.31 559.06 163.42
189.67 558.59 167.01
189.77 558.4 167.18
189.81 557.77 166.85
188.02 556.59 160.79
190.02 556.54 166.55
190.01 556.33 166.39
190.01 556.11 166.22
188.39 555.17 160.86
187.82 555.1 160.22
189.58 555.87 165.89
188.73 555.6 163.23
189.88 556.17 166.98
187.69 556.38 160.8
189.75 557.21 167.35
189.71 557.85 167.71
189.71 558.06 167.88
189.67 558.26 167.9
189.61 558.46 167.86
188.62 558.82 165.26
187.15 558.62 160.87
187.98 559.07 163.61
187.29 559.31 161.77
186.94 559.43 160.87
186.3 559.69 159.2
189.1 560.84 169.55
189.21 560.45 169.58
189.25 560.24 169.54
186.36 559.46 160.62
189.3 560.05 169.54
186.5 559.28 160.89
189.51 559.89 170.04
186.11 558.96 159.53
189.59 559.71 170.12
187.6 558.94 163.83
189.51 559.26 169.57
188.0 558.83 164.9
186.16 558.32 159.21
189.55 559.07 169.55
189.6 558.86 169.54
189.65 558.67 169.54
189.64 558.45 169.36
189.28 558.35 168.25
189.74 558.05 169.37
189.75 557.84 169.23
189.7 557.61 168.92
189.73 557.41 168.87
189.74 557.2 168.75
189.74 556.99 168.58
189.74 556.77 168.42
189.73 556.55 168.24
189.75 556.35 168.16
188.21 555.44 163.04
187.5 555.22 160.83
187.2 554.9 159.71
189.64 554.03 167.67
186.49 554.76 159.12
189.77 556.01 169.51
186.39 554.95 158.99
189.75 556.21 169.59
189.69 556.62 169.74
189.72 557.06 170.15
189.07 556.86 168.11
186.43 556.06 159.9
189.72 557.28 170.28
189.7 557.47 170.38
186.43 556.5 160.23
189.7 557.9 170.69
186.51 556.96 160.8
189.7 558.12 170.87
189.68 558.32 170.94
189.6 558.51 170.88
189.25 558.41 169.79
189.13 558.59 169.56
186.45 557.82 161.28
186.89 559.03 163.42
186.55 558.94 162.38
186.59 559.16 162.65
188.77 559.97 169.54
188.68 560.37 169.57
188.57 560.76 169.56
189.12 561.73 173.51
189.48 560.99 174.01
188.03 560.61 169.57
189.54 560.8 174.04
189.59 560.6 174.04
189.59 560.4 173.89
189.6 560.19 173.77
189.65 559.79 173.62
189.68 559.59 173.57
187.15 558.67 165.61
188.47 558.83 169.53
187.43 558.53 166.31
187.97 558.47 167.81
186.94 558.18 164.63
188.41 558.39 169.02
189.16 558.39 171.18
188.82 558.29 170.13
189.65 558.32 172.54
189.66 558.11 172.42
189.69 557.91 172.37
188.32 557.51 168.13
186.81 557.06 163.45
189.72 557.71 172.31
188.85 557.45 169.6
189.77 557.51 172.29
188.43 557.11 168.16
189.71 557.07 171.79
189.77 556.87 171.84
186.79 555.97 162.57
186.79 555.76 162.43
189.17 556.27 169.65
188.85 556.17 168.66
189.76 556.24 171.32
186.58 555.03 161.29
189.31 555.45 169.48
189.41 555.06 169.47
189.61 554.26 169.45
189.67 554.07 169.49
189.72 553.87 169.49
189.77 553.68 169.48
189.33 553.8 169.45
189.29 554.01 169.48
188.88 555.59 169.48
189.75 556.28 172.51
189.68 556.47 172.44
188.93 556.24 170.1
188.24 556.24 168.11
186.98 555.86 164.23
186.97 556.07 164.33
189.71 557.12 173.01
189.64 557.31 172.94
189.73 557.75 173.54
188.46 557.38 169.61
187.13 556.98 165.47
189.69 557.95 173.57
187.04 557.17 165.37
189.67 558.16 173.67
189.63 558.36 173.7
189.53 558.53 173.53
189.63 558.99 174.17
187.53 558.39 167.68
189.64 559.21 174.37
189.64 559.41 174.51
189.59 559.6 174.5
189.52 559.8 174.45
187.88 559.55 169.55
189.06 560.3 173.52
188.92 560.89 173.54
188.71 561.67 173.52
188.56 562.25 173.52
188.13 562.19 173.52
188.39 561.2 173.53
188.73 560.67 174.1
187.47 559.92 169.93
188.69 560.03 173.53
187.42 559.69 169.61
187.46 559.49 169.57
187.5 559.29 169.56
187.59 558.9 169.53
189.09 558.47 173.53
188.5 558.3 171.7
189.61 558.41 174.98
189.23 558.3 173.8
189.72 558.23 175.16
189.71 558.02 174.98
189.27 557.89 173.6
189.8 557.63 174.93
187.59 556.97 168.1
189.69 557.17 174.29
188.18 556.72 169.59
189.76 556.99 174.35
187.76 556.38 168.14
187.81 556.18 168.14
189.62 556.53 173.61
188.58 556.2 170.36
188.32 556.13 169.57
189.79 555.73 173.49
189.84 555.54 173.52
188.65 554.73 169.49
188.9 553.73 169.47
190.22 552.32 173.38
189.89 553.7 173.47
189.84 553.89 173.46
189.82 554.1 173.56
189.85 554.32 173.79
188.46 553.86 169.47
188.36 554.26 169.47
187.73 554.06 167.52
189.59 554.87 173.46
189.82 555.57 174.66
189.79 555.79 174.75
189.77 555.98 174.84
189.77 556.19 174.98
189.29 556.04 173.48
189.77 556.41 175.13
189.31 556.27 173.73
189.76 556.61 175.26
188.6 556.26 171.67
187.9 556.05 169.51
189.75 557.03 175.54
189.1 556.84 173.54
189.72 557.44 175.76
187.57 556.8 169.12
189.71 558.06 176.21
187.57 557.44 169.59
189.71 558.27 176.36
189.29 558.36 175.23
188.49 558.34 172.93
187.82 558.36 171.0
188.53 558.98 173.52
187.53 558.91 170.58
188.77 559.46 174.55
187.45 559.1 170.5
189.63 560.12 177.53
189.48 560.7 177.55
189.45 560.89 177.59
187.93 561.32 173.54
187.82 561.71 173.53
187.78 561.92 173.57
187.2 561.71 173.47
187.36 561.54 173.82
187.42 561.34 173.83
187.42 561.14 173.69
187.44 560.93 173.57
187.48 560.73 173.55
187.53 560.53 173.54
188.87 560.68 177.5
188.93 560.49 177.53
189.03 560.11 177.53
189.07 559.91 177.51
187.78 559.56 173.54
188.16 559.45 174.54
187.88 559.17 173.53
189.63 559.03 178.46
189.42 558.56 177.49
188.42 558.27 174.4
189.48 558.37 177.54
189.17 558.28 176.57
189.71 558.23 178.08
189.63 558.0 177.69
189.7 557.6 177.58
189.74 557.4 177.56
188.47 557.02 173.63
189.69 556.98 177.09
187.65 556.36 170.78
189.76 556.79 177.16
187.6 556.13 170.47
188.51 556.2 173.14
188.14 556.08 171.98
189.27 556.21 175.31
188.9 556.1 174.18
187.67 554.66 169.56
189.3 554.96 174.47
187.71 554.45 169.53
187.75 554.26 169.5
189.07 554.47 173.45
187.8 554.06 169.49
187.84 553.86 169.47
187.9 553.66 169.48
190.61 553.71 177.29
189.41 553.09 173.4
189.52 552.71 173.42
189.56 552.51 173.4
189.62 552.32 173.42
189.16 552.29 173.41
188.99 553.72 174.0
189.8 555.25 177.48
189.75 555.44 177.47
189.71 555.64 177.51
189.59 556.23 177.62
189.53 556.43 177.58
189.74 556.91 178.54
189.81 557.14 178.93
188.09 556.62 173.6
189.72 557.52 178.97
189.18 557.77 177.6
189.55 558.3 179.07
187.51 558.75 173.55
187.53 559.81 174.41
187.45 560.0 174.34
188.39 560.67 177.53
187.98 560.41 177.54
188.23 559.45 177.51
187.57 558.44 174.88
188.4 558.25 177.09
189.05 558.23 178.96
189.55 557.97 180.19
188.91 556.94 177.57
187.66 556.56 173.7
187.68 556.36 173.62
187.69 556.15 173.49
188.5 556.19 175.82
188.11 556.07 174.63
187.74 555.96 173.49
189.15 556.18 177.68
188.86 556.1 176.8
189.69 556.14 179.19
189.28 555.39 177.45
188.37 554.89 174.48
188.24 554.0 173.45
189.63 554.04 177.45
188.52 553.67 173.98
188.39 553.43 173.45
189.72 553.66 177.43
188.59 552.63 173.42
188.69 552.24 173.42
188.33 552.19 173.42
187.58 552.57 171.54
189.31 553.78 177.44
187.88 553.95 173.46
187.83 554.14 173.46
189.06 554.75 177.44
187.78 554.33 173.46
187.73 554.54 173.49
187.69 554.73 173.51
187.66 554.93 173.57
188.86 555.52 177.47
189.23 556.06 178.93
187.63 556.19 174.45
187.57 556.59 174.6
189.48 557.37 180.66
188.5 557.08 177.63
187.57 556.8 174.75
187.58 557.02 174.96
187.49 557.41 174.99
187.54 557.63 175.29
187.49 557.82 175.29
188.44 558.31 178.38
188.08 558.21 177.29
188.1 558.43 177.52
187.95 558.99 177.51
187.85 559.39 177.53
187.65 560.16 177.53
187.54 560.54 177.53
187.49 560.74 177.54
187.45 560.93 177.55
187.49 559.67 178.09
187.56 559.48 178.15
187.52 558.85 177.56
187.66 558.27 177.51
188.18 558.21 178.95
187.74 558.08 177.6
188.52 558.1 179.83
187.79 557.89 177.59
189.01 557.83 181.04
187.6 557.42 176.71
187.58 556.58 176.0
188.15 556.53 177.59
189.41 556.51 181.18
188.24 556.15 177.56
188.31 555.75 177.47
188.61 554.59 177.45
188.87 553.63 177.44
187.79 552.63 173.62
187.16 552.42 171.66
187.81 552.42 173.52
187.9 552.02 173.45
188.24 554.14 177.45
188.19 554.33 177.45
188.78 556.39 180.71
187.74 556.07 177.5
189.19 556.72 182.13
187.72 556.27 177.6
187.67 556.46 177.59
189.63 557.27 183.81
187.62 556.66 177.61
189.12 557.32 182.4
187.55 557.47 178.04
188.11 558.05 180.07
187.61 558.32 178.84
187.53 558.5 178.78
188.5 557.52 182.36
188.81 557.41 183.17
187.69 557.07 179.72
188.95 557.24 183.42
188.98 556.84 183.21
187.6 556.42 178.95
188.46 556.48 181.46
187.63 556.22 178.88
187.7 556.04 178.94
187.7 555.83 178.8
187.71 555.63 178.65
187.73 555.42 178.55
187.73 555.22 178.41
187.74 555.01 178.28
187.75 554.81 178.15
187.76 554.6 178.01
187.77 554.18 177.73
187.78 553.98 177.61
187.79 553.77 177.47
187.84 553.58 177.46
187.89 553.38 177.44
187.39 553.65 177.34
188.46 556.69 182.73
188.73 556.98 183.74
188.68 557.17 183.74
188.26 557.05 182.44
188.55 557.33 183.5
188.35 556.86 183.73
187.23 556.77 183.35
190.57 559.61 159.24
190.6 559.4 159.26
190.75 559.18 159.66
190.4 559.2 158.51
190.86 558.96 159.96
190.86 558.76 159.88
191.1 555.4 159.21
191.11 555.19 159.16
191.13 554.98 159.15
190.66 555.17 159.31
190.79 557.25 160.66
190.8 557.46 160.79
190.77 557.66 160.78
190.73 558.08 160.83
190.7 558.29 160.83
190.67 558.5 160.84
190.65 558.7 160.84
190.2 558.74 159.32
190.62 558.92 160.85
190.6 559.11 160.85
190.57 559.33 160.85
190.6 559.53 161.03
190.47 559.46 161.78
190.18 559.49 160.8
190.22 559.28 160.85
190.56 558.63 161.73
190.55 558.43 161.6
190.62 556.97 161.19
190.68 556.76 161.32
190.67 555.72 160.84
190.74 555.51 160.97
190.72 555.3 160.81
189.83 555.29 159.91
190.47 555.47 162.16
190.53 555.68 162.48
189.99 556.11 160.82
190.48 556.3 162.59
190.49 556.5 162.73
190.5 556.71 162.83
190.51 556.92 162.97
190.51 557.12 163.06
190.38 557.96 163.0
190.33 558.16 162.91
189.66 558.63 160.83
190.3 559.19 163.28
190.02 559.42 162.43
188.98 559.63 160.53
189.64 559.37 162.66
189.28 559.39 161.46
190.12 559.12 164.18
190.16 558.91 164.22
190.17 558.7 164.17
189.26 558.15 160.83
190.25 556.85 163.6
190.31 556.63 163.72
190.38 555.81 163.59
190.07 555.62 162.45
189.89 555.42 161.74
189.45 555.23 160.19
190.18 556.06 164.94
190.09 557.29 165.19
190.09 557.5 165.29
190.06 557.71 165.26
189.99 558.73 165.5
189.93 558.94 165.39
188.55 559.46 160.94
188.5 559.67 160.86
188.82 559.25 163.12
189.33 559.0 164.72
188.99 559.03 163.57
189.8 558.76 166.21
189.86 558.55 166.33
189.9 558.35 166.36
188.36 557.63 160.83
188.41 557.21 160.82
189.93 556.71 165.74
189.98 556.5 165.83
190.04 556.29 165.94
189.68 555.9 164.52
189.25 555.51 162.91
188.01 555.1 160.35
188.77 555.68 163.21
189.23 555.87 164.84
189.85 556.24 167.14
187.92 556.76 160.81
189.77 557.26 167.33
189.74 557.47 167.3
189.77 557.67 167.51
189.79 557.88 167.69
187.74 558.23 160.86
189.68 558.49 167.58
189.35 558.72 166.57
188.87 558.96 165.04
188.35 559.21 163.4
187.73 559.47 161.39
189.45 561.13 169.59
189.48 560.93 169.59
189.5 560.72 169.57
189.54 560.52 169.63
189.55 560.32 169.57
187.96 559.04 163.6
188.49 558.79 165.28
189.63 558.29 168.92
189.41 558.31 168.2
189.42 558.1 168.14
189.78 557.88 169.25
189.55 557.9 168.47
189.66 557.68 168.77
189.72 557.47 168.88
189.73 557.28 168.79
189.71 557.07 168.63
189.69 556.87 168.49
189.64 556.67 168.24
189.64 556.46 168.15
189.69 556.26 168.21
188.87 555.9 165.27
188.28 555.51 163.1
187.81 555.33 161.43
189.72 553.85 169.47
189.67 554.46 169.58
189.73 554.65 169.9
186.52 554.8 159.06
189.75 554.86 170.04
186.47 555.01 159.01
189.75 555.06 170.15
186.97 555.19 160.79
189.76 555.26 170.27
189.78 555.66 170.51
188.13 555.75 164.95
189.78 555.86 170.61
188.26 555.95 165.51
189.77 556.26 170.75
189.45 556.28 169.69
189.77 556.47 170.86
189.39 556.49 169.59
189.75 556.67 170.87
189.65 556.88 170.63
188.87 557.14 168.11
188.82 557.54 168.13
189.64 558.08 171.15
189.64 558.28 171.24
188.72 558.36 168.14
186.0 558.57 159.04
189.54 558.49 171.0
189.1 558.53 169.53
189.07 558.73 169.53
187.93 558.83 165.7
187.38 559.08 163.95
186.03 559.2 159.43
186.81 559.34 162.12
186.45 559.37 160.91
186.21 559.6 160.23
188.91 559.96 169.53
188.86 560.37 169.54
188.8 560.77 169.55
189.39 562.36 173.55
189.42 562.16 173.55
189.45 561.96 173.56
189.5 561.75 173.65
189.51 561.55 173.61
189.58 560.95 173.57
188.49 560.26 169.54
188.54 559.85 169.55
188.68 558.83 169.54
187.08 558.97 164.18
187.62 558.72 165.92
186.59 558.8 162.45
189.64 558.35 172.58
189.67 557.95 172.49
189.7 557.74 172.53
189.67 557.54 172.33
188.86 557.6 169.61
189.7 557.34 172.32
188.45 557.44 168.13
189.72 557.14 172.31
188.48 557.23 168.14
189.74 556.94 172.3
188.93 557.0 169.57
189.77 556.74 172.3
189.8 556.53 172.32
186.4 556.75 160.86
189.81 556.33 172.26
186.41 556.55 160.83
189.45 556.15 170.97
188.86 556.19 168.97
188.29 556.02 166.94
186.47 556.13 160.82
186.55 555.5 160.82
187.04 555.26 162.38
186.58 555.29 160.83
189.17 554.95 169.47
186.62 555.08 160.87
186.21 554.89 159.39
186.19 554.68 159.24
189.25 554.34 169.47
189.31 553.94 169.48
189.33 553.73 169.43
190.15 552.41 173.4
188.8 553.87 169.49
188.74 554.28 169.47
189.91 554.63 173.61
188.68 554.69 169.46
189.87 554.83 173.57
189.83 555.03 173.53
189.8 555.23 173.51
189.77 555.43 173.5
189.76 555.84 173.65
189.72 556.03 173.61
188.49 556.11 169.49
189.72 556.23 173.7
189.66 556.43 173.59
189.65 556.64 173.67
188.01 556.75 168.15
189.71 556.84 173.96
187.1 557.02 165.18
189.73 557.03 174.09
188.39 557.13 169.62
187.11 557.22 165.32
189.74 557.23 174.22
189.74 557.43 174.31
188.34 557.54 169.61
189.71 557.63 174.33
189.76 557.82 174.58
187.84 557.98 168.13
189.72 558.23 174.62
189.42 558.25 173.64
189.34 558.65 173.52
189.63 559.03 174.71
189.59 559.23 174.66
189.55 559.43 174.6
188.03 559.58 169.52
189.09 560.47 173.54
187.9 560.6 169.57
187.87 560.8 169.55
189.04 560.88 173.55
188.88 562.08 173.56
188.84 562.29 173.53
188.42 562.29 173.55
188.5 561.67 173.53
188.58 561.07 173.53
187.42 561.01 169.57
187.47 560.59 169.56
188.7 560.27 173.58
187.5 560.39 169.57
188.71 560.06 173.53
187.52 560.19 169.55
187.63 559.37 169.54
187.66 559.16 169.55
188.87 558.84 173.52
189.75 557.77 176.02
187.85 557.93 169.63
189.73 557.59 175.86
189.05 557.64 173.58
189.72 557.39 175.71
189.73 557.18 175.67
189.16 556.83 173.57
187.54 556.94 168.13
189.73 556.19 175.22
188.08 555.9 169.5
189.34 555.22 173.47
189.67 555.0 174.47
189.4 554.82 173.46
188.26 554.47 169.46
188.29 554.27 169.47
190.67 553.76 177.31
189.69 553.8 173.99
189.62 553.0 173.41
189.66 552.8 173.43
189.68 552.6 173.42
189.07 552.27 173.42
188.94 553.27 173.44
187.74 553.52 169.5
190.04 553.82 177.42
187.69 553.93 169.53
187.18 553.95 167.78
187.7 554.13 169.65
187.7 554.33 169.75
188.78 554.48 173.47
187.71 554.53 169.87
187.72 554.73 170.0
187.74 554.94 170.15
189.01 555.06 174.5
189.82 555.61 177.49
189.79 555.81 177.49
189.77 556.01 177.52
189.79 556.21 177.67
189.75 556.41 177.62
189.77 556.61 177.8
189.78 556.8 177.92
187.56 556.97 170.49
189.78 557.0 178.03
188.46 557.1 173.6
189.8 557.2 178.17
187.45 557.38 170.3
189.65 557.79 177.95
187.52 557.97 170.83
189.53 558.0 177.63
187.51 558.17 170.87
189.5 558.2 177.62
189.53 558.4 177.81
189.41 558.6 177.51
189.72 558.77 178.63
189.66 558.97 178.53
188.17 559.11 173.54
189.61 559.17 178.44
189.22 560.0 177.5
189.2 560.2 177.53
189.12 560.79 177.54
187.83 561.54 173.53
187.81 561.73 173.54
187.78 561.94 173.56
187.29 562.14 173.58
187.33 561.93 173.63
187.38 561.72 173.69
187.4 561.53 173.68
187.4 561.32 173.59
188.17 560.84 175.95
187.45 560.92 173.55
188.67 560.59 177.53
187.63 560.7 174.06
187.5 560.52 173.54
188.72 560.18 177.52
187.52 560.31 173.53
187.56 560.11 173.55
188.77 559.79 177.51
187.94 559.48 174.56
187.63 559.51 173.52
187.66 559.3 173.53
189.4 558.35 178.99
188.96 558.39 177.51
187.84 558.09 173.6
187.48 558.13 172.4
187.87 557.89 173.6
187.53 557.92 172.45
189.76 556.94 179.54
189.75 556.74 179.42
189.19 556.79 177.56
187.48 556.91 171.85
189.71 556.16 179.04
189.36 556.18 177.84
188.14 555.67 173.49
189.35 555.4 177.47
189.4 555.0 177.46
189.5 554.2 177.43
188.32 554.26 173.46
189.54 554.01 177.45
188.57 553.65 174.02
188.42 553.46 173.45
188.53 552.64 173.42
188.58 552.24 173.42
188.0 552.25 173.45
187.94 552.65 173.44
187.92 552.85 173.45
187.89 553.05 173.45
187.87 553.25 173.46
187.82 553.65 173.48
188.97 553.8 177.46
187.78 553.86 173.46
187.71 554.46 173.49
187.69 554.66 173.54
188.84 554.79 177.46
187.67 554.86 173.54
187.64 555.07 173.54
187.62 555.27 173.56
188.73 555.59 177.48
187.59 555.86 173.76
188.68 555.99 177.49
187.56 556.07 173.74
188.85 556.18 178.15
189.44 556.33 180.22
187.56 556.86 174.1
187.56 557.06 174.22
188.55 557.18 177.62
187.56 557.26 174.29
189.45 557.3 180.72
188.51 557.38 177.58
187.58 557.66 174.55
187.59 557.85 174.68
189.4 557.9 180.83
187.59 558.06 174.78
188.13 558.21 176.66
187.65 558.25 175.08
188.79 558.34 178.97
188.36 558.38 177.52
187.52 558.65 174.84
187.48 558.86 174.79
188.27 558.98 177.51
188.19 559.57 177.52
188.11 560.18 177.52
188.06 560.58 177.55
187.32 560.6 176.35
187.73 560.15 177.53
187.84 559.35 177.52
187.9 558.95 177.53
188.41 558.31 178.97
187.97 558.35 177.51
188.67 558.1 179.74
187.65 558.19 176.33
188.08 557.75 177.59
187.61 557.6 175.94
187.6 557.2 175.71
189.35 556.86 181.46
187.6 557.0 175.62
188.53 556.14 178.36
187.52 556.21 174.98
188.3 555.96 177.49
188.32 555.76 177.47
188.47 554.57 177.45
188.53 554.17 177.44
188.58 553.77 177.45
187.07 552.43 171.73
187.59 552.21 173.38
187.44 553.93 175.5
188.0 554.1 177.47
187.97 554.3 177.45
187.78 555.69 177.49
187.76 555.89 177.49
187.73 556.29 177.6
188.66 556.41 180.78
187.69 556.48 177.56
188.97 556.58 181.93
187.65 556.69 177.49
187.62 557.08 177.6
189.09 557.15 182.57
187.6 557.28 177.61
189.04 557.55 182.61
187.55 557.68 177.65
188.73 557.77 181.65
187.54 557.88 177.69
188.39 557.99 180.63
187.52 558.07 177.72
187.86 558.24 178.95
187.59 559.05 178.42
187.53 559.26 178.32
187.47 559.46 178.22
187.53 557.81 179.32
187.59 557.6 179.42
188.92 557.29 183.75
188.94 557.09 183.74
188.92 556.91 183.59
187.53 557.03 178.95
187.58 556.62 178.95
188.24 556.38 181.05
187.6 556.43 178.9
187.62 556.23 178.89
187.7 556.03 179.08
187.65 555.83 178.8
187.64 555.64 178.68
187.52 553.67 177.37
188.21 557.06 183.73
188.17 557.25 183.69
186.7 556.78 183.23
