88.91 720.74 87.87
90.83 716.88 79.21
90.61 716.84 78.98
88.71 719.64 87.94
87.21 719.34 86.34
86.64 718.87 86.26
90.72 716.67 80.18
90.92 716.35 79.18
91.13 716.34 79.19
91.27 716.21 79.31
91.06 716.26 79.43
90.66 716.6 80.43
89.84 719.92 91.57
88.42 718.78 88.0
89.53 719.6 91.23
90.35 716.37 80.42
90.56 716.4 80.57
90.78 716.48 80.96
90.99 716.41 80.78
91.18 716.04 79.56
91.39 716.0 79.5
91.61 715.94 79.4
92.03 715.45 79.42
91.82 715.54 79.65
91.6 715.55 79.62
91.41 716.0 81.08
91.39 715.68 79.97
91.2 716.02 81.07
90.79 716.3 81.89
90.35 716.1 81.04
89.94 719.3 91.93
88.88 719.05 90.7
88.18 718.35 88.03
87.97 718.38 88.04
87.74 717.76 88.04
87.95 717.74 88.02
88.37 717.69 88.0
88.59 717.73 88.23
88.79 717.63 87.97
89.72 718.69 91.95
89.91 715.61 81.42
90.35 715.85 82.42
90.57 715.95 82.84
90.79 716.02 83.18
91.0 715.9 82.85
91.2 715.74 82.36
91.82 715.41 81.46
92.65 714.82 79.71
93.62 713.87 78.4
93.0 714.42 80.07
92.79 714.42 80.0
91.97 715.02 81.76
91.76 715.04 81.77
91.35 715.49 83.15
90.73 715.84 84.12
90.3 715.59 83.12
89.42 715.28 81.74
89.15 717.16 88.09
88.95 717.29 88.45
87.89 717.26 87.98
87.69 717.27 87.93
87.27 717.34 88.04
87.07 717.36 88.02
84.73 717.14 86.88
87.07 717.22 88.03
87.28 717.21 88.08
87.76 717.81 90.31
87.7 717.15 88.01
88.55 714.73 80.02
88.95 717.01 88.0
89.17 717.12 88.48
89.45 718.1 91.96
89.44 715.15 81.78
90.1 715.49 83.19
90.76 715.76 84.37
91.37 715.38 83.29
91.98 714.85 81.69
92.19 714.81 81.64
92.81 714.28 80.05
93.03 714.26 80.04
93.65 713.75 78.51
93.86 713.46 78.37
93.65 713.66 79.01
93.44 713.76 79.25
93.43 713.53 78.46
93.02 714.1 80.27
92.6 714.41 81.21
92.39 714.49 81.39
92.19 714.68 81.98
91.57 715.16 83.41
90.96 715.58 84.63
90.75 715.66 84.83
90.53 715.59 84.52
90.09 715.3 83.37
89.56 716.78 88.26
89.43 717.89 92.04
89.36 716.9 88.61
89.14 716.75 88.0
88.94 716.93 88.57
88.3 716.83 88.0
87.47 716.93 88.02
87.05 716.98 88.04
86.84 717.01 88.06
86.63 717.02 88.05
86.42 717.05 88.05
84.5 716.96 87.03
84.16 716.6 87.4
85.64 716.65 88.11
85.85 716.63 88.13
86.89 716.51 88.1
87.1 716.47 88.04
87.3 716.44 88.02
87.71 713.97 79.65
87.92 713.84 79.27
87.89 713.52 78.16
88.16 714.22 80.68
88.1 713.52 78.25
88.56 713.79 79.34
88.97 716.26 87.99
89.05 714.57 82.21
89.82 716.42 88.88
89.71 714.94 83.72
90.01 716.17 88.09
90.8 715.44 85.85
91.21 715.18 85.11
91.82 714.71 83.73
92.02 714.64 83.54
92.64 714.21 82.31
93.04 713.39 79.63
93.26 713.74 80.9
93.25 713.33 79.5
93.67 713.29 79.52
95.0 715.53 87.73
93.06 713.61 82.48
92.85 713.78 82.98
92.83 713.19 80.96
92.81 712.71 79.3
92.61 712.9 79.88
92.24 714.21 84.23
91.63 714.67 85.6
91.42 714.76 85.86
91.21 714.81 85.95
91.01 715.06 86.71
90.82 715.3 87.47
90.62 715.54 88.23
90.43 715.81 89.09
90.22 715.86 89.18
90.16 714.92 85.94
89.95 714.84 85.6
89.66 716.74 92.01
89.6 715.87 89.01
89.46 716.81 92.18
89.25 716.77 91.99
88.95 712.88 78.51
88.84 716.83 92.03
88.75 715.67 88.0
88.18 713.99 82.03
87.93 715.93 88.6
87.7 715.78 88.01
87.5 715.84 88.15
86.52 716.59 90.37
86.15 716.21 90.56
87.76 715.49 88.67
87.95 715.29 88.04
88.15 715.24 87.97
88.57 715.21 88.01
88.47 713.92 83.53
88.38 712.83 79.75
88.69 714.0 83.89
88.66 713.71 82.88
88.63 713.24 81.27
88.59 712.79 79.7
89.08 716.32 92.02
88.91 714.14 84.44
88.8 712.64 79.27
89.28 716.27 91.91
89.22 715.44 89.02
89.13 714.26 84.94
89.49 716.27 91.98
89.41 715.11 87.97
89.35 714.3 85.15
89.23 712.6 79.28
89.71 716.38 92.44
89.62 715.09 87.98
89.91 716.24 92.05
90.01 714.65 86.6
90.25 715.03 87.99
90.46 715.03 88.07
90.69 715.38 89.37
90.67 715.03 88.15
91.09 715.01 88.25
91.28 714.77 87.49
91.48 714.51 86.68
91.89 714.27 86.01
92.02 712.52 80.03
92.29 713.85 84.7
92.26 713.08 82.05
92.23 712.45 79.88
92.51 713.8 84.59
92.45 712.42 79.83
94.64 714.49 87.76
94.53 714.4 87.77
92.56 712.31 79.82
92.4 713.78 84.84
92.34 712.35 79.88
92.16 713.01 82.08
92.13 712.36 79.84
91.92 712.43 80.02
91.79 714.2 86.07
91.59 714.38 86.6
91.39 714.59 87.24
91.2 714.91 88.3
91.19 714.71 87.58
90.8 715.29 89.45
90.59 715.3 89.39
90.37 714.95 88.12
90.16 714.94 88.02
90.02 716.13 92.05
89.92 714.56 86.61
89.83 716.3 92.58
89.53 715.01 88.03
89.32 715.02 87.99
89.14 712.47 79.13
89.2 716.19 91.97
89.11 715.02 87.89
89.05 714.17 84.94
88.92 712.43 78.91
88.99 716.23 92.03
88.93 715.37 89.02
88.83 714.12 84.7
88.6 713.97 84.08
88.48 715.12 88.0
88.37 716.3 92.02
88.17 716.32 92.02
88.07 715.16 88.01
87.88 715.38 88.67
88.08 716.09 92.0
88.29 716.08 92.03
88.19 714.94 88.07
88.4 714.9 88.01
88.7 716.03 91.99
88.9 716.0 91.97
88.83 715.15 89.01
88.81 714.85 87.98
89.02 714.85 88.04
88.96 714.0 85.1
88.92 713.44 83.15
89.31 715.97 92.02
89.09 712.96 81.55
89.05 712.31 79.29
89.26 712.3 79.35
89.61 714.23 86.15
89.48 712.33 79.51
89.85 714.74 88.0
89.83 714.49 87.11
90.15 716.09 92.76
90.05 714.51 87.26
90.34 715.86 92.02
90.27 714.75 88.16
90.5 715.07 89.37
90.71 715.12 89.63
90.93 715.22 90.03
91.13 715.05 89.54
91.52 714.59 88.08
91.39 712.03 79.2
91.72 714.38 87.42
92.07 717.48 98.25
91.91 714.12 86.6
91.83 712.26 80.16
92.12 714.0 86.28
92.06 712.72 81.85
92.32 713.8 85.68
92.31 713.42 84.35
92.25 712.14 79.9
92.53 713.63 85.15
92.15 713.98 87.8
92.14 713.63 86.62
91.95 714.07 88.04
91.93 713.65 86.61
91.75 714.33 88.88
91.55 714.51 89.42
91.41 711.74 79.82
91.4 711.54 79.13
91.35 714.7 90.0
91.3 713.7 86.54
91.19 711.53 79.03
91.16 715.0 90.98
91.09 713.72 86.54
90.97 711.56 79.03
90.96 715.28 91.85
90.88 713.77 86.61
90.76 715.34 91.99
90.36 715.67 92.99
90.31 714.88 90.27
90.24 713.81 86.53
90.09 714.67 89.44
90.03 713.85 86.61
89.86 714.46 88.66
89.83 713.87 86.6
89.64 714.24 87.79
89.44 714.32 88.0
89.41 713.93 86.66
89.2 713.92 86.55
89.11 715.52 92.03
88.81 714.39 88.01
88.63 714.69 89.0
88.42 714.72 89.0
88.28 715.6 91.99
88.08 715.62 92.02
87.87 715.63 91.97
87.66 715.67 92.02
84.95 715.21 91.65
85.38 715.29 92.09
85.59 715.29 92.14
85.8 715.27 92.16
86.0 715.23 92.09
88.27 715.0 92.13
88.47 714.92 91.93
88.68 714.91 91.98
89.09 714.83 91.88
89.04 714.1 89.32
89.3 714.84 91.96
89.5 714.81 91.93
89.46 714.13 89.59
89.62 713.35 86.95
90.12 714.59 91.4
89.99 712.46 84.05
90.34 714.77 92.11
90.17 711.93 82.29
90.56 715.1 93.32
90.77 715.17 93.66
90.68 713.54 88.01
90.66 713.11 86.53
90.97 715.12 93.56
90.78 711.44 80.84
91.17 714.95 93.05
91.02 712.08 83.11
90.98 711.28 80.34
91.37 714.74 92.38
91.56 714.42 91.37
91.5 713.02 86.53
91.77 714.41 91.39
91.72 713.28 87.48
91.96 714.12 90.47
91.93 713.41 88.01
92.16 713.81 89.49
92.14 713.39 88.04
92.56 713.32 87.96
94.23 713.11 87.85
94.14 712.67 87.83
92.9 712.84 87.95
92.7 713.12 88.83
92.69 712.87 87.97
92.49 713.2 89.04
92.48 712.88 87.93
92.27 712.88 87.86
92.1 713.75 90.79
91.91 714.07 91.8
91.88 713.39 89.46
91.51 714.37 92.7
91.32 714.65 93.58
91.23 712.84 87.34
91.01 712.71 86.81
90.92 714.98 94.59
90.77 712.1 84.63
90.71 715.0 94.57
90.7 714.69 93.51
90.37 712.61 86.23
90.34 712.1 84.47
90.17 712.74 86.62
90.08 714.75 93.51
89.97 712.96 87.32
89.86 714.52 92.62
89.64 714.28 91.71
89.44 714.37 91.97
89.42 714.03 90.78
89.2 713.94 90.38
88.83 714.44 91.97
88.62 714.47 92.02
88.43 714.7 92.72
88.64 714.56 92.83
88.83 714.3 92.01
89.03 714.25 91.92
89.22 713.9 90.77
89.45 714.23 92.0
89.4 713.51 89.48
89.66 714.29 92.27
89.87 714.43 92.83
89.8 713.22 88.62
90.31 714.73 94.04
90.19 712.7 86.98
90.39 712.56 86.59
90.73 714.89 94.74
90.71 714.54 93.52
90.6 712.55 86.62
90.93 714.88 94.79
90.81 712.54 86.66
91.13 714.77 94.47
91.25 712.89 88.04
91.72 714.18 92.66
91.92 713.99 92.08
92.12 713.92 91.91
92.11 713.58 90.74
92.29 712.76 87.96
92.71 712.97 88.86
92.7 712.7 87.92
92.92 712.88 88.63
93.12 712.67 87.96
93.93 712.29 87.87
93.92 711.81 86.22
93.51 712.35 87.94
93.3 712.4 88.04
93.1 712.57 88.52
92.67 712.45 87.95
92.09 713.7 92.06
91.9 714.02 93.11
91.89 713.71 92.03
91.7 714.18 93.59
91.68 713.73 92.02
91.5 714.37 94.15
91.47 713.75 92.02
91.44 712.98 89.33
91.27 713.77 92.03
91.21 712.66 88.15
91.1 714.65 95.0
91.06 713.8 92.03
91.0 712.65 88.06
90.85 713.82 92.05
90.44 713.85 91.98
90.37 712.64 87.79
90.23 713.86 91.94
90.17 712.74 88.06
90.07 714.52 94.16
89.97 712.96 88.75
89.85 714.35 93.48
89.78 713.21 89.54
89.64 714.31 93.29
89.41 714.0 92.12
89.2 713.98 91.99
88.99 714.0 91.99
88.8 714.32 93.02
89.21 713.89 93.51
89.41 713.85 93.43
89.6 713.51 92.34
89.84 714.11 94.5
89.8 713.36 91.9
89.99 713.18 91.34
90.37 712.58 89.44
90.68 714.44 95.95
90.58 712.5 89.22
90.89 714.51 96.25
90.76 712.14 88.05
91.0 712.6 89.73
91.32 715.02 98.19
91.21 712.73 90.26
91.48 714.16 95.26
91.43 713.04 91.39
91.64 713.19 91.99
91.85 713.28 92.39
92.28 713.56 93.51
92.43 711.93 87.94
93.05 711.86 87.93
93.47 711.82 87.93
93.68 711.8 87.94
93.88 711.78 87.94
94.09 711.71 87.78
93.22 711.25 87.88
93.01 711.26 87.85
92.79 710.64 85.63
92.6 711.32 87.92
92.39 711.35 87.94
92.18 711.37 87.94
91.65 713.73 95.86
91.64 713.46 94.95
91.41 712.86 92.78
91.35 711.45 87.93
91.2 712.78 92.44
91.15 711.75 88.89
91.06 714.1 96.94
90.99 712.65 91.92
90.86 714.24 97.33
90.8 713.11 93.44
90.76 712.31 90.68
90.37 712.7 91.86
90.23 714.02 96.36
90.18 712.97 92.74
89.81 713.82 95.54
89.78 713.36 93.93
90.27 713.79 97.25
90.25 713.44 96.06
90.21 712.68 93.44
90.41 712.57 93.13
91.09 713.81 97.62
91.03 712.51 93.14
91.8 710.99 88.21
92.01 710.9 87.95
92.21 710.87 87.94
92.41 710.46 86.61
92.63 710.83 87.93
92.53 710.66 87.9
92.32 710.67 87.85
92.32 710.42 86.98
92.12 710.71 87.9
91.91 710.79 88.12
90.8 713.84 98.21
90.6 713.86 98.2
90.39 713.73 97.68
90.27 713.58 98.17
90.47 713.58 98.23
90.67 713.55 98.21
90.88 713.53 98.21
91.99 710.43 87.93
92.2 710.43 88.0
92.4 710.39 87.96
90.95 710.12 88.08
90.74 710.14 88.04
90.53 710.16 88.04
89.46 713.36 98.67
89.05 713.3 98.33
87.25 712.92 98.59
88.68 709.73 88.14
88.89 709.73 88.24
93.81 713.49 78.7
93.79 713.7 78.57
93.51 713.76 78.64
93.69 713.63 79.26
93.55 713.36 78.95
93.55 713.26 79.51
93.48 713.45 79.23
93.55 713.69 79.35
93.17 714.15 79.91
93.08 713.9 79.74
93.31 713.8 80.54
93.37 713.61 80.78
93.33 713.38 80.77
92.92 713.19 79.52
93.02 713.02 79.91
92.77 712.48 79.34
92.36 712.21 79.52
92.47 712.47 79.76
92.49 712.7 79.73
92.94 713.12 81.01
92.59 713.17 79.86
93.21 713.66 81.64
93.03 714.01 80.92
92.74 714.09 79.95
92.77 714.31 79.95
92.79 714.54 79.93
92.15 715.34 79.28
92.04 715.08 79.05
92.59 714.26 81.16
92.97 713.79 82.58
94.66 714.35 87.77
93.0 713.59 82.77
94.6 713.91 87.77
92.44 712.91 81.26
94.57 713.69 87.75
91.97 712.48 79.91
94.55 713.47 87.78
91.93 712.25 79.89
91.93 712.04 79.98
91.75 711.74 79.54
94.04 711.76 86.87
94.13 711.6 87.24
94.02 711.81 87.09
91.51 711.47 79.15
91.68 711.76 79.57
94.47 713.48 87.81
91.85 712.27 79.9
94.49 713.7 87.8
94.52 713.92 87.79
92.8 713.34 82.51
92.94 713.62 82.85
92.92 713.82 82.68
92.87 714.01 82.45
92.58 714.51 81.28
91.99 715.11 79.16
92.1 715.37 79.4
91.83 715.58 79.34
91.82 715.36 79.37
91.8 715.14 79.42
92.35 714.54 81.46
92.54 714.41 82.12
92.56 714.21 82.26
92.7 713.85 82.86
92.84 713.71 83.39
92.64 713.19 82.95
92.39 713.08 82.21
92.31 712.83 82.04
92.12 712.53 81.57
91.22 711.69 79.03
91.47 711.59 79.89
91.28 711.29 79.38
94.02 711.96 87.95
93.98 711.73 87.91
93.65 711.52 87.9
93.69 711.75 87.94
93.73 711.98 87.96
91.05 711.13 79.69
91.23 711.43 80.14
90.88 711.26 79.11
90.92 711.5 79.13
91.85 712.36 81.75
91.89 712.59 81.77
92.38 713.03 83.18
92.49 714.14 83.05
92.17 714.84 81.73
91.69 715.7 79.83
91.62 715.88 79.54
91.48 716.04 79.02
90.63 716.74 78.4
90.91 716.65 79.35
90.84 716.41 79.25
91.16 716.12 80.39
91.34 715.99 81.04
91.96 714.56 83.62
92.06 714.4 84.01
92.25 713.85 84.88
92.42 713.72 85.48
92.2 713.19 84.98
91.79 712.8 83.85
93.06 712.76 87.95
91.17 711.87 82.23
93.21 712.62 88.49
90.6 711.18 80.71
90.55 710.95 80.65
92.91 711.65 87.94
92.82 710.98 87.92
92.78 710.76 87.91
92.49 710.4 87.11
92.6 710.25 87.55
92.42 710.25 87.99
92.43 710.46 87.93
92.46 710.68 87.93
92.48 710.9 87.91
92.55 711.35 87.92
92.6 712.0 87.82
92.66 712.24 87.92
92.7 712.46 87.93
90.88 711.61 82.47
92.97 712.8 88.67
90.2 711.5 80.31
92.76 712.91 87.93
92.79 713.13 87.94
91.46 712.51 83.94
91.94 713.15 85.2
92.32 713.74 86.17
92.05 714.25 85.09
91.68 714.72 83.7
91.69 714.94 83.66
91.65 715.13 83.45
91.35 715.63 82.25
90.96 716.52 80.64
90.84 716.68 80.17
90.5 716.75 79.05
90.82 716.47 80.87
90.95 716.31 81.34
91.2 715.79 82.38
91.43 715.26 83.35
91.55 714.89 83.9
92.24 713.73 86.62
91.75 713.08 85.32
92.59 713.26 87.95
92.82 712.95 88.81
92.51 712.81 87.9
90.7 711.54 82.6
92.41 711.93 87.95
92.28 711.04 87.91
92.25 710.81 87.91
92.23 710.6 87.94
92.21 710.38 87.96
92.11 710.58 88.04
92.11 710.79 87.94
92.13 711.01 87.92
92.16 711.23 87.91
92.2 711.46 87.93
90.61 711.54 82.78
92.37 712.79 87.94
91.11 712.2 84.12
92.74 713.17 88.95
89.76 711.78 79.95
91.64 712.87 85.55
92.47 713.47 87.96
91.79 713.15 85.91
92.06 713.49 86.64
92.09 713.71 86.64
92.09 713.92 86.56
91.99 714.08 86.14
91.93 714.27 85.87
91.81 714.42 85.43
90.42 714.0 81.11
91.47 715.11 84.02
91.23 715.64 83.04
91.07 715.78 82.48
90.94 716.15 81.88
90.87 716.33 81.58
90.56 716.41 80.56
90.5 715.85 82.49
90.86 715.8 83.67
91.06 715.46 84.45
91.2 715.11 85.06
91.58 714.44 86.57
88.76 713.17 78.04
91.65 714.26 86.88
88.81 712.97 78.29
91.85 714.14 87.56
88.84 712.77 78.46
91.97 713.99 88.02
88.86 712.57 78.6
92.01 713.8 88.23
89.04 712.44 79.25
92.25 713.7 89.04
91.92 713.55 88.05
89.05 712.23 79.37
92.33 713.53 89.37
91.92 713.13 88.23
91.4 712.89 86.65
91.8 712.87 87.96
91.15 712.57 85.99
89.88 711.97 82.14
91.16 712.36 86.11
90.15 711.89 83.06
91.74 712.43 87.95
90.65 711.92 84.66
91.59 711.32 87.94
91.06 710.09 88.02
91.24 711.64 87.98
91.32 712.3 87.95
91.35 712.52 87.94
90.82 712.28 86.34
91.24 712.68 87.54
91.94 713.22 89.55
91.61 713.07 88.56
92.32 713.6 90.62
89.41 712.47 81.73
92.05 713.89 89.64
91.53 713.65 88.05
91.99 714.07 89.36
91.07 713.65 86.59
88.76 712.59 79.6
91.62 714.32 88.05
88.54 712.92 78.74
88.39 713.06 78.21
91.45 714.66 87.38
91.28 714.79 86.77
90.91 715.47 85.3
90.71 715.59 84.6
90.22 715.38 83.13
89.72 715.16 81.59
90.32 715.17 85.13
89.84 714.95 83.67
90.84 715.19 86.78
88.45 714.12 79.54
90.75 714.94 86.61
88.28 713.83 79.13
91.16 714.91 87.93
88.26 713.61 79.15
91.4 714.6 88.85
91.56 714.46 89.41
88.21 712.94 79.28
91.72 714.33 89.99
90.6 713.82 86.61
88.89 713.04 81.42
91.81 714.16 90.36
91.04 713.81 88.02
89.56 712.71 83.74
92.27 713.75 91.99
92.27 713.55 92.09
91.3 712.68 89.32
90.83 712.46 87.92
90.81 712.24 87.93
91.09 711.75 89.06
90.55 710.03 88.05
90.45 710.06 88.06
91.09 712.45 89.1
90.74 712.28 88.05
91.47 712.83 90.16
91.22 712.72 89.42
92.2 713.58 92.18
92.2 713.79 92.09
92.14 713.97 91.83
91.9 714.07 91.03
89.5 712.97 83.76
90.95 713.84 88.05
91.67 714.38 90.15
88.76 713.27 81.25
88.15 712.99 79.39
91.47 714.7 89.35
88.18 713.43 79.3
91.16 714.98 88.26
90.87 715.27 87.2
89.77 714.99 83.78
89.05 714.88 81.5
90.75 715.48 88.02
90.75 715.06 88.19
91.12 715.02 89.4
90.24 714.63 86.75
91.22 714.86 89.79
88.29 713.54 80.9
91.65 714.44 91.37
90.09 713.73 86.63
91.81 714.1 92.04
91.9 713.93 92.38
89.98 713.05 86.58
92.14 713.84 93.22
91.75 713.66 92.02
92.24 713.69 93.61
92.16 713.44 93.44
90.38 712.61 88.04
91.81 713.07 92.47
91.43 712.9 91.34
91.45 712.7 91.48
91.11 712.54 90.45
90.73 712.16 89.39
90.04 709.96 88.1
89.7 709.93 88.06
91.16 712.5 91.69
90.83 712.34 90.68
91.53 712.88 92.7
91.79 713.22 93.42
90.38 712.55 89.15
90.2 712.68 88.53
90.08 712.83 88.07
89.85 713.14 87.18
90.19 713.71 88.05
89.55 713.42 86.11
91.53 714.53 92.01
89.74 713.72 86.61
89.21 713.48 84.98
91.4 714.68 91.54
91.27 714.83 91.07
89.76 714.15 86.5
91.14 714.98 90.56
90.05 714.49 87.29
90.84 715.05 89.57
90.45 714.88 88.4
88.56 714.03 82.67
90.82 715.25 89.43
90.34 715.04 87.98
90.36 715.26 87.96
90.55 715.55 88.45
90.43 715.7 87.99
89.82 716.36 88.08
90.06 716.05 88.99
89.6 715.01 87.98
90.93 715.19 92.16
90.87 714.96 92.06
91.17 714.89 93.07
90.83 714.74 92.05
91.3 714.74 93.55
90.8 714.52 92.04
89.49 713.92 88.08
90.78 714.3 92.07
89.46 713.7 88.07
89.99 713.11 90.02
91.57 713.23 95.07
90.26 712.61 91.12
90.49 712.51 91.89
91.13 712.61 93.91
90.55 712.33 92.15
90.96 712.32 93.48
88.95 709.71 88.14
88.66 709.62 88.2
90.59 712.41 93.22
91.31 713.16 95.23
90.75 713.1 93.44
90.27 712.88 91.99
91.63 713.72 96.02
90.78 713.32 93.45
90.06 712.99 91.28
91.61 713.91 95.86
90.83 713.55 93.51
91.48 714.05 95.38
90.85 713.76 93.48
89.77 713.27 90.23
91.45 714.25 95.22
90.39 713.76 92.03
89.64 713.41 89.74
89.49 713.55 89.2
89.54 713.99 89.19
89.26 713.86 88.34
89.93 714.37 90.26
91.03 715.08 93.52
90.6 714.89 92.23
90.27 714.74 91.22
90.95 715.25 93.19
90.57 715.28 91.95
90.6 715.5 91.96
89.28 714.92 87.97
89.74 715.95 88.99
89.75 716.58 88.77
89.61 716.72 88.24
89.3 717.03 88.0
89.38 716.86 88.36
89.23 716.58 87.97
89.2 716.36 87.97
89.42 715.63 88.99
90.38 715.85 91.99
90.68 715.57 93.09
89.0 714.82 87.98
90.71 715.38 93.26
90.27 715.18 91.94
90.79 715.21 93.58
90.91 715.06 94.03
90.71 714.77 93.53
90.04 714.46 91.5
89.68 714.09 90.5
89.34 713.94 89.47
91.14 714.55 95.02
89.31 713.72 89.48
89.59 713.43 90.49
91.39 714.05 96.04
89.78 713.31 91.17
89.86 713.14 91.47
91.5 713.69 96.52
91.41 713.45 96.35
90.16 712.87 92.58
90.27 712.71 92.97
90.77 712.54 94.67
90.83 712.73 95.42
91.02 713.03 95.91
90.23 712.65 93.51
91.36 713.59 96.75
90.02 712.97 92.7
90.01 713.17 92.59
89.8 713.27 91.86
91.25 714.15 96.17
89.91 713.74 92.04
89.55 713.57 90.93
90.93 714.83 94.87
89.96 714.39 91.92
90.62 714.89 93.84
90.33 714.76 92.95
90.56 715.07 93.56
90.06 715.05 91.96
88.75 714.47 88.0
88.77 714.68 87.94
90.47 715.65 93.04
89.17 715.28 89.0
90.19 715.94 92.01
88.89 715.57 87.98
88.92 715.79 87.99
88.96 716.02 88.0
88.99 716.24 88.01
89.26 716.98 88.56
89.11 717.13 88.03
88.94 720.68 87.87
88.92 720.46 87.87
88.89 720.24 87.88
88.86 720.02 87.87
88.83 719.8 87.87
88.79 719.58 87.85
90.07 719.68 91.91
90.04 719.46 91.91
90.0 719.25 91.89
89.97 719.03 91.89
89.94 718.81 91.86
88.61 717.84 87.99
88.64 717.64 88.18
88.46 716.74 88.0
88.59 716.38 88.57
89.71 716.65 92.05
89.7 716.45 92.12
89.81 716.29 92.52
88.23 714.97 88.01
88.5 714.67 89.01
91.39 714.95 98.2
90.09 714.36 94.27
89.84 714.25 93.52
89.31 714.0 91.9
91.34 714.73 98.13
90.43 714.31 95.37
89.65 713.95 93.02
90.85 714.3 96.74
89.59 713.31 93.08
91.1 713.81 97.75
89.75 713.18 93.68
91.12 713.62 97.91
90.24 713.21 95.24
90.57 713.16 96.31
90.79 713.46 98.2
90.81 713.67 98.19
90.84 713.89 98.18
90.28 714.04 96.34
89.75 713.79 94.71
89.4 713.63 93.66
89.75 713.99 94.64
89.36 713.81 93.45
89.41 714.04 93.52
88.96 714.25 91.98
89.01 714.69 91.96
87.88 715.43 88.02
89.21 716.22 91.97
89.25 716.45 92.02
88.08 715.93 88.46
89.28 716.66 92.02
89.32 716.88 92.05
89.35 717.1 92.04
89.41 717.55 92.06
88.13 717.41 87.99
88.22 718.07 88.0
88.24 718.29 88.0
89.34 719.38 91.09
88.51 718.51 90.49
87.63 717.73 88.02
87.6 717.51 88.01
87.51 716.84 87.99
87.45 716.4 88.0
88.72 716.53 92.01
87.4 715.96 88.03
87.53 715.81 88.49
88.63 715.87 92.0
88.57 715.64 91.91
88.48 714.78 91.99
88.71 714.47 92.86
90.18 713.51 98.0
88.56 714.7 92.7
88.38 715.04 91.97
88.46 715.69 91.97
88.56 716.36 92.01
88.58 716.57 91.98
87.36 716.04 88.28
87.3 716.22 88.02
87.33 716.44 88.01
87.36 716.66 88.02
87.39 716.89 88.02
87.48 717.55 88.01
87.0 717.18 87.95
86.99 716.96 88.0
86.94 716.52 88.04
86.97 716.33 88.22
88.1 715.99 92.0
88.05 715.56 92.03
88.01 715.34 92.0
88.06 715.15 92.24
87.67 715.52 92.02
86.6 716.72 88.07
86.61 716.93 88.02
85.48 717.69 86.44
85.83 716.59 88.05
88.61 713.1 98.45
86.66 715.34 92.02
85.6 716.54 88.09
86.51 715.44 92.07
87.97 713.06 98.46
86.3 715.38 92.09
85.2 716.56 88.06
84.32 716.65 87.23
84.57 716.34 88.18
85.4 715.46 91.21
87.36 712.88 98.64
85.22 715.06 92.19
84.01 716.41 87.73
83.68 716.25 88.21
84.76 715.06 92.18
86.47 712.77 98.68
83.56 716.16 88.19
