277.18 58.7 166.31
277.0 58.86 166.35
277.32 58.93 165.47
277.16 59.1 165.46
276.99 59.26 165.46
276.82 59.43 165.46
276.66 59.6 165.45
276.49 59.76 165.44
276.32 59.93 165.44
276.16 60.09 165.44
275.99 60.26 165.43
275.83 60.42 165.42
275.66 60.59 165.41
275.49 60.76 165.42
275.33 60.92 165.41
275.16 61.09 165.41
274.99 61.26 165.4
274.82 61.42 165.41
274.66 61.59 165.4
274.5 61.75 165.38
273.3 62.89 165.46
273.11 63.06 165.5
272.97 63.23 165.43
273.04 63.37 166.65
273.2 63.2 166.69
273.54 62.88 166.68
273.73 62.71 166.62
274.12 62.4 166.46
274.09 62.19 167.01
274.44 62.08 166.49
274.6 61.91 166.5
274.74 61.74 166.6
274.91 61.57 166.61
275.07 61.41 166.61
275.24 61.24 166.61
275.4 61.08 166.62
275.57 60.92 166.62
275.74 60.75 166.63
275.91 60.59 166.62
276.07 60.42 166.64
276.25 60.26 166.61
276.41 60.1 166.62
276.58 59.92 166.64
276.73 59.76 166.66
276.9 59.59 166.67
277.08 59.43 166.63
277.41 59.1 166.66
277.57 58.94 166.67
277.73 58.78 166.68
277.94 58.61 166.58
278.08 58.45 166.63
278.02 58.23 167.27
278.4 58.12 166.71
278.57 57.95 166.69
278.74 57.78 166.7
278.9 57.62 166.71
278.2 58.34 167.38
278.16 58.53 167.02
278.84 58.68 165.18
273.79 63.34 167.2
273.82 63.15 167.56
273.98 62.98 167.59
274.16 62.82 167.57
274.29 62.65 167.67
278.17 58.89 167.61
278.27 58.71 167.78
278.59 58.58 167.37
278.28 58.88 168.33
279.09 59.47 165.21
274.96 62.16 168.24
274.83 62.34 168.14
274.69 62.51 168.05
274.58 62.68 167.9
273.96 63.14 168.25
273.84 63.33 168.09
273.99 63.57 167.22
274.29 64.03 167.13
274.43 63.86 167.2
274.08 63.55 168.68
274.08 63.35 169.14
275.8 61.73 168.99
275.93 61.56 169.09
279.54 59.77 165.18
278.95 59.44 167.23
278.41 59.11 169.18
279.08 59.26 167.35
278.56 58.94 169.23
278.58 59.34 169.38
279.2 59.68 167.25
276.49 61.28 169.6
276.36 61.45 169.5
276.25 61.63 169.35
274.1 63.54 169.75
274.69 64.12 167.19
274.54 64.29 167.12
274.92 64.57 167.16
274.21 63.76 170.54
277.18 61.04 170.17
277.3 60.87 170.3
277.42 60.7 170.42
277.55 60.53 170.52
279.58 59.99 167.27
278.7 59.59 170.09
278.65 59.38 170.7
278.78 59.21 170.79
278.84 59.42 170.84
278.73 59.59 170.69
280.6 60.22 165.15
279.66 60.21 167.24
277.84 60.4 170.81
277.72 60.57 170.71
277.59 60.75 170.58
277.48 60.92 170.44
274.43 63.83 170.6
274.31 64.0 170.45
275.15 64.64 167.17
274.99 64.81 167.12
275.4 65.1 167.14
274.24 64.17 171.79
274.37 64.0 171.9
274.58 63.85 171.77
274.75 63.69 171.77
274.9 63.53 171.79
275.24 63.2 171.8
275.4 63.04 171.81
275.57 62.87 171.81
275.72 62.72 171.83
275.89 62.55 171.83
276.06 62.39 171.84
276.21 62.23 171.85
276.37 62.07 171.86
276.53 61.91 171.87
276.71 61.74 171.88
276.87 61.58 171.9
277.03 61.42 171.9
277.2 61.25 171.9
277.36 61.09 171.91
277.52 60.93 171.92
277.69 60.77 171.92
277.85 60.61 171.92
278.02 60.44 171.93
278.17 60.28 171.95
278.34 60.12 171.96
278.5 59.96 171.97
278.67 59.8 171.97
278.83 59.63 171.99
278.92 59.46 172.19
279.06 59.83 172.16
278.9 59.99 172.16
274.62 64.22 172.02
274.46 64.38 172.01
275.7 65.34 167.11
275.56 65.51 167.02
274.77 64.38 172.96
275.38 63.93 172.64
275.63 63.59 172.86
280.56 61.34 167.11
280.7 61.17 167.19
281.47 61.35 165.1
278.99 60.18 173.2
279.13 60.01 173.28
279.55 60.11 172.13
279.08 60.22 173.82
278.97 60.39 173.67
279.57 60.52 172.05
280.88 61.42 167.15
281.64 61.6 165.08
280.73 61.59 167.08
280.99 62.47 164.52
280.7 62.62 164.83
280.69 62.82 164.41
276.14 63.32 173.27
276.01 63.49 173.17
275.89 63.66 173.04
274.75 64.59 173.45
274.95 65.05 171.96
276.18 66.01 167.1
276.58 66.55 165.0
276.42 66.71 164.99
276.48 66.84 165.85
276.84 66.73 165.32
275.31 65.27 171.98
274.84 64.74 174.22
276.7 63.2 173.64
276.82 63.02 173.77
277.08 62.68 173.98
281.0 63.02 164.61
280.95 62.81 165.2
281.04 62.63 165.41
281.09 61.82 167.13
282.01 61.83 165.09
279.92 60.75 172.12
279.12 60.61 175.0
282.25 61.92 165.15
281.36 61.92 167.11
282.1 62.09 165.09
281.72 62.42 165.19
281.54 62.58 165.21
281.35 62.74 165.28
281.15 62.89 165.37
281.03 63.08 165.21
277.54 62.44 174.33
280.9 63.25 165.12
277.41 62.6 174.25
277.28 62.78 174.13
280.55 63.57 165.14
277.15 62.94 174.04
280.39 63.74 165.13
280.23 63.91 165.1
280.06 64.07 165.09
279.89 64.24 165.1
279.72 64.4 165.09
279.47 64.55 165.32
279.37 64.73 165.11
279.23 64.9 165.04
279.06 65.06 165.03
278.9 65.23 165.02
278.72 65.39 165.04
278.57 65.56 164.99
274.92 64.81 174.71
278.22 65.89 165.02
275.41 65.55 171.96
276.65 66.51 167.07
276.51 66.69 166.98
277.05 66.83 165.45
276.61 66.91 166.23
276.59 67.12 165.8
276.43 67.8 166.46
277.15 67.58 165.36
276.94 67.31 166.44
277.33 67.42 165.34
276.95 67.11 166.89
277.06 66.93 167.05
276.63 66.61 168.73
277.16 66.75 167.24
276.74 66.43 168.88
277.28 66.57 167.37
275.81 65.97 171.95
277.51 66.22 167.67
277.63 66.04 167.82
275.1 64.97 175.79
278.45 65.85 166.44
278.62 65.69 166.44
278.79 65.52 166.45
278.96 65.36 166.43
279.13 65.19 166.46
279.29 65.03 166.45
279.46 64.87 166.45
279.63 64.7 166.47
279.8 64.54 166.47
279.96 64.37 166.49
280.13 64.21 166.5
280.29 64.05 166.5
280.46 63.88 166.51
280.62 63.72 166.53
280.96 63.39 166.54
281.12 63.23 166.54
281.29 63.06 166.55
278.38 62.17 174.97
281.46 62.9 166.57
278.48 62.0 175.13
281.62 62.74 166.56
278.56 61.82 175.36
278.66 61.64 175.57
281.0 62.18 169.2
282.28 62.07 166.62
280.44 61.46 172.07
279.25 60.79 176.2
279.28 60.76 177.17
279.27 60.95 176.77
279.02 61.29 176.52
280.66 61.67 172.09
278.95 61.47 176.28
278.89 61.66 175.98
280.78 62.09 170.87
280.47 62.22 171.26
281.04 62.35 169.7
280.24 62.57 170.97
280.13 62.74 170.83
280.01 62.92 170.68
279.89 63.09 170.55
279.78 63.27 170.39
279.66 63.44 170.26
279.55 63.62 170.11
279.42 63.79 169.98
279.2 64.15 169.68
278.75 64.85 169.08
278.63 65.02 168.93
278.52 65.2 168.79
278.4 65.37 168.65
278.29 65.55 168.49
278.18 65.72 168.34
275.14 65.13 176.34
278.06 65.9 168.2
274.74 65.24 176.98
276.06 66.2 171.92
275.91 66.37 171.87
276.52 66.53 170.15
276.71 66.79 169.15
277.46 67.2 166.56
277.14 67.32 167.0
277.13 67.53 166.57
276.79 67.86 166.56
276.63 68.02 166.55
274.04 67.17 175.49
276.29 66.56 171.93
276.36 66.37 172.23
276.53 66.21 172.22
275.01 65.6 176.93
276.65 66.04 172.34
274.35 65.23 179.22
275.1 65.43 177.11
275.25 65.27 177.16
276.88 65.69 172.63
277.0 65.52 172.75
277.44 65.63 171.54
277.92 65.14 171.59
278.08 64.99 171.6
278.24 64.82 171.62
278.41 64.65 171.62
278.58 64.5 171.63
278.74 64.34 171.64
278.9 64.18 171.64
277.01 63.51 177.32
279.06 64.02 171.65
279.23 63.85 171.67
279.4 63.69 171.67
279.56 63.52 171.68
279.72 63.36 171.69
280.05 63.04 171.71
280.21 62.88 171.73
278.36 62.24 177.24
280.38 62.71 171.74
278.68 61.92 177.26
280.7 62.39 171.76
278.83 61.76 177.28
280.85 62.22 171.83
279.0 61.61 177.27
280.51 61.95 173.19
280.95 62.05 172.0
279.17 61.45 177.27
281.15 61.89 171.92
279.33 61.29 177.29
279.37 61.1 177.61
279.55 60.94 177.58
279.81 60.81 177.31
279.99 60.64 177.31
280.14 60.48 177.35
280.31 60.32 177.34
280.47 60.16 177.35
280.63 60.0 177.36
280.79 59.84 177.36
280.95 59.69 177.37
281.12 59.52 177.38
281.28 59.36 177.38
281.43 59.2 177.42
281.56 59.42 177.46
281.4 59.58 177.46
281.24 59.74 177.45
281.08 59.9 177.44
280.92 60.06 177.43
280.75 60.23 177.43
280.58 60.39 177.43
280.42 60.55 177.42
280.26 60.71 177.41
280.1 60.87 177.39
279.93 61.03 177.41
279.38 61.1 178.44
279.34 61.29 178.11
279.44 61.51 177.37
279.12 61.83 177.36
281.1 62.28 172.01
278.96 61.98 177.36
278.79 62.15 177.36
278.63 62.31 177.35
278.47 62.47 177.35
278.31 62.63 177.33
278.14 62.79 177.33
277.98 62.95 177.32
277.82 63.11 177.31
277.65 63.27 177.31
278.56 63.49 174.83
277.49 63.42 177.3
278.45 63.66 174.68
277.17 63.74 177.3
277.01 63.9 177.29
276.84 64.06 177.28
276.68 64.22 177.27
276.52 64.38 177.27
276.36 64.54 177.26
276.19 64.7 177.25
276.03 64.86 177.25
275.87 65.02 177.23
275.71 65.18 177.23
275.55 65.34 177.22
275.22 65.45 177.67
274.88 65.57 178.16
275.14 65.64 177.44
275.06 65.82 177.2
274.91 65.98 177.17
274.75 66.14 177.16
274.59 66.3 177.15
274.43 66.46 177.14
274.27 66.62 177.12
273.95 66.94 177.1
273.82 67.1 177.02
274.33 67.83 175.67
274.31 67.21 177.13
274.51 67.06 177.05
274.67 66.9 177.05
274.83 66.74 177.06
274.98 66.58 177.09
275.14 66.43 177.1
275.3 66.27 177.12
275.44 66.1 177.19
275.22 65.84 178.26
275.03 65.59 179.26
275.26 65.65 178.6
275.94 65.63 177.18
276.1 65.47 177.19
276.25 65.31 177.21
276.42 65.15 177.21
276.16 64.89 178.38
276.58 64.99 177.22
276.48 64.56 178.42
276.91 64.67 177.24
276.65 64.41 178.4
277.07 64.51 177.25
276.8 64.24 178.43
277.23 64.35 177.26
276.96 64.09 178.44
277.39 64.19 177.27
277.12 63.93 178.44
277.55 64.04 177.27
277.29 63.77 178.45
277.71 63.87 177.28
277.44 63.61 178.47
277.87 63.72 177.29
277.61 63.45 178.47
278.04 63.56 177.29
277.77 63.29 178.48
278.2 63.4 177.29
277.93 63.14 178.48
278.36 63.24 177.31
278.09 62.98 178.51
278.52 63.08 177.31
278.25 62.82 178.51
278.69 62.93 177.31
278.41 62.66 178.53
278.85 62.76 177.33
278.57 62.5 178.53
279.01 62.61 177.32
278.73 62.35 178.54
279.17 62.45 177.33
278.89 62.18 178.54
279.33 62.29 177.35
279.05 62.03 178.56
279.49 62.13 177.35
279.38 61.7 178.58
279.83 61.8 177.37
279.51 61.54 178.68
279.69 61.39 178.62
279.86 61.23 178.6
280.47 61.17 177.41
280.65 61.01 177.39
280.8 60.85 177.4
280.97 60.69 177.4
281.45 60.22 177.43
281.77 60.28 176.58
281.78 59.89 177.46
281.93 59.73 177.49
282.02 60.04 177.47
279.59 61.47 179.56
280.02 61.56 178.4
279.45 61.63 179.51
277.5 63.94 178.52
277.34 64.09 178.52
277.18 64.25 178.52
277.02 64.41 178.5
276.85 64.57 178.51
276.69 64.73 178.5
276.53 64.89 178.5
276.36 65.05 178.49
276.2 65.21 178.48
276.04 65.37 178.47
275.88 65.53 178.47
275.72 65.68 178.47
275.3 65.78 179.17
275.41 66.0 178.42
275.22 66.15 178.48
275.64 66.26 177.32
274.56 67.4 177.11
274.4 67.56 177.09
277.9 65.14 176.65
277.33 67.6 164.87
276.5 67.97 166.53
276.68 67.86 166.55
276.87 67.72 166.53
277.07 67.58 166.5
277.16 67.03 165.23
277.26 67.41 166.42
277.31 67.11 165.7
277.42 67.45 166.8
277.55 66.74 165.16
277.74 66.6 165.13
277.94 66.46 165.11
278.13 66.32 165.08
278.32 66.16 165.02
279.23 65.24 164.95
279.03 65.39 164.97
278.82 65.57 165.09
278.64 65.69 165.08
278.34 66.39 166.38
278.44 65.82 165.07
278.15 66.52 166.4
278.25 65.95 165.09
277.95 66.66 166.43
278.05 66.11 165.16
277.75 66.82 166.48
277.56 66.96 166.51
277.36 67.11 166.55
277.14 67.42 166.98
276.99 67.3 166.41
276.86 67.1 165.64
276.69 67.07 165.27
276.32 66.98 166.13
276.52 66.84 166.1
276.83 66.97 167.02
276.99 66.99 167.34
277.17 66.95 167.56
277.37 66.75 167.39
277.55 66.65 167.46
279.16 65.21 166.51
279.35 65.08 166.51
279.44 64.61 165.45
279.74 64.81 166.49
279.94 64.66 166.46
280.05 64.08 165.13
280.13 64.53 166.43
280.24 63.96 165.15
280.43 63.84 165.16
280.62 63.71 165.17
280.82 63.58 165.17
281.01 63.45 165.16
281.21 63.28 165.09
281.43 63.02 164.79
281.6 63.01 165.07
282.2 62.52 164.84
282.38 62.45 164.99
282.57 62.35 165.05
282.36 62.26 165.07
282.15 62.4 165.09
281.95 62.57 165.18
281.76 62.72 165.22
281.56 62.85 165.22
281.37 62.98 165.22
281.18 63.12 165.24
280.99 63.22 165.18
280.68 63.92 166.46
280.8 63.32 165.09
280.29 64.2 166.51
280.09 64.33 166.51
279.9 64.45 166.49
279.71 64.58 166.51
277.69 66.4 167.69
277.5 66.5 167.63
277.32 66.58 167.52
277.09 66.94 168.05
276.91 67.01 167.91
276.78 66.76 167.04
276.59 66.86 166.96
276.3 66.3 167.06
276.7 66.88 169.31
276.86 66.9 169.64
278.1 65.59 168.4
278.28 65.51 168.5
278.47 65.41 168.58
280.66 62.67 165.29
280.85 62.59 165.4
281.04 62.48 165.46
281.32 62.7 166.55
281.49 62.71 166.86
281.67 62.65 167.01
281.85 61.78 165.06
281.87 62.45 166.86
282.09 62.2 166.6
281.71 62.23 166.87
281.48 62.57 167.33
281.29 62.67 167.26
278.65 65.07 168.89
278.46 65.16 168.81
278.28 65.22 168.66
276.64 66.91 170.18
276.51 66.73 169.46
276.11 66.09 167.08
275.77 65.61 167.12
276.38 66.9 171.59
276.54 66.89 171.86
276.75 66.64 171.57
276.95 66.49 171.53
277.13 66.38 171.55
279.01 64.32 169.49
279.18 64.25 169.61
279.37 64.15 169.68
281.13 61.19 165.03
281.13 61.96 167.09
281.16 62.57 168.74
281.31 61.85 167.1
281.35 62.53 168.95
281.23 62.53 169.56
281.06 62.54 169.29
281.07 61.71 167.14
280.88 61.81 167.06
281.06 60.95 165.11
280.89 60.96 164.85
279.65 63.78 170.05
279.47 63.87 169.97
279.29 63.95 169.85
278.0 65.47 171.55
277.81 65.6 171.56
277.43 65.87 171.6
277.24 66.0 171.6
277.05 66.13 171.6
276.87 66.26 171.61
276.47 66.61 171.84
276.27 66.76 171.88
275.69 65.34 167.12
275.5 65.45 167.08
275.17 64.93 167.14
275.93 66.24 171.93
276.21 66.52 173.18
276.38 66.48 173.37
276.82 65.89 172.6
277.0 65.81 172.72
277.18 65.72 172.8
278.97 64.09 171.71
279.17 63.96 171.71
279.35 63.83 171.71
279.54 63.71 171.72
279.73 63.57 171.72
279.92 63.44 171.7
280.02 62.99 170.69
280.12 63.3 171.67
280.19 62.91 170.81
280.52 61.31 167.18
280.81 62.3 170.29
280.95 62.41 170.84
281.14 62.3 170.88
280.93 62.48 171.74
280.74 62.61 171.74
280.55 62.74 171.76
280.35 62.88 171.76
280.17 63.0 171.77
279.97 63.12 171.73
280.39 61.1 167.15
279.78 63.25 171.74
280.38 60.34 165.13
277.4 65.39 173.11
277.22 65.48 173.03
277.04 65.56 172.9
276.2 66.5 173.9
275.79 66.03 171.93
275.6 66.13 171.84
275.02 64.73 167.14
274.83 64.83 167.06
274.55 64.27 167.15
275.5 65.46 171.97
275.99 66.38 175.27
276.15 66.35 175.49
277.79 64.59 173.8
277.97 64.52 173.92
278.15 64.43 174.02
279.71 59.92 164.96
279.89 59.83 165.04
279.9 60.63 167.15
280.07 59.76 165.18
280.08 60.52 167.21
280.56 62.19 172.43
280.72 62.17 172.68
280.64 62.16 173.15
280.47 62.19 172.94
280.56 61.75 171.96
279.84 60.44 167.22
279.82 59.67 165.19
278.44 64.1 174.35
278.26 64.19 174.27
278.08 64.27 174.16
277.91 64.35 174.04
276.06 66.31 175.9
275.89 66.35 175.71
275.25 65.36 171.96
275.06 65.47 171.9
274.47 67.83 177.06
274.04 67.51 175.47
274.47 64.06 167.17
274.28 64.17 167.11
274.07 63.61 167.21
273.81 66.98 175.58
274.25 67.27 177.13
274.62 67.0 177.1
274.8 66.89 177.12
274.98 66.77 177.13
275.17 66.64 177.13
275.35 66.51 177.1
275.56 66.31 176.96
275.71 66.35 177.34
275.9 66.19 177.25
277.51 64.56 175.86
279.4 59.21 165.2
278.71 63.43 175.03
279.41 59.97 167.21
278.88 63.36 175.17
279.06 63.28 175.27
280.3 61.22 172.09
280.44 62.08 174.59
280.29 62.09 175.12
280.01 61.11 172.05
279.3 62.96 175.64
279.12 63.05 175.54
278.95 63.11 175.39
279.29 59.78 167.27
279.29 59.0 165.21
279.1 59.08 165.1
276.17 65.65 177.12
275.98 65.79 177.14
275.61 66.07 177.22
275.42 66.2 177.24
275.23 66.3 177.16
274.5 66.76 177.07
274.31 66.91 177.1
274.71 64.7 172.02
274.12 67.05 177.14
273.94 67.18 177.15
274.35 63.88 169.23
274.2 63.78 168.7
273.93 63.4 167.22
273.75 63.49 167.14
273.62 63.22 166.2
273.47 63.14 165.71
273.3 63.11 165.35
273.11 63.26 165.39
272.93 63.34 165.28
273.37 62.98 167.19
273.56 62.88 167.26
273.8 62.45 166.55
274.17 62.21 166.61
274.37 62.06 166.57
274.33 64.16 172.01
274.76 61.78 166.52
274.84 61.29 165.39
274.53 63.94 171.8
274.94 61.64 166.51
275.03 61.14 165.36
274.72 63.81 171.8
275.23 61.02 165.37
274.91 63.69 171.82
275.1 63.56 171.81
274.96 65.18 175.81
275.28 63.43 171.79
275.03 65.72 177.35
275.13 66.0 178.27
275.2 65.61 177.38
275.31 65.93 178.4
275.48 65.86 178.53
275.67 65.7 178.47
275.86 65.56 178.45
276.05 65.42 178.41
276.15 64.91 177.23
276.23 65.29 178.39
276.33 64.77 177.21
276.64 63.19 173.61
276.52 64.63 177.18
276.82 63.11 173.72
276.99 63.03 173.82
277.17 62.94 173.93
277.25 64.16 177.26
277.44 64.03 177.27
277.63 63.91 177.26
277.81 63.78 177.28
278.0 63.64 177.25
278.89 59.27 167.34
278.19 63.5 177.21
278.38 63.37 177.22
279.6 60.58 172.07
279.78 60.48 172.15
279.76 62.16 176.5
279.93 62.09 176.63
280.11 61.97 176.65
280.26 62.02 177.06
280.44 61.93 177.13
282.13 60.78 177.13
281.86 60.55 176.86
280.29 61.88 177.53
280.13 61.84 177.14
279.95 61.97 177.16
279.0 62.65 177.26
279.47 60.38 172.14
278.81 62.79 177.28
278.62 62.93 177.3
278.44 63.05 177.3
278.25 63.18 177.29
278.45 62.17 175.01
278.06 63.3 177.28
278.28 62.24 174.87
277.87 63.43 177.27
278.1 62.31 174.75
278.76 59.03 167.32
277.92 62.39 174.64
277.51 63.63 177.17
277.74 62.46 174.52
277.31 63.81 177.27
277.56 62.55 174.42
277.02 64.44 178.41
277.13 63.92 177.22
277.38 62.63 174.31
276.84 64.57 178.43
276.94 64.05 177.26
276.65 64.71 178.46
276.46 64.84 178.47
276.09 65.09 178.47
276.82 61.3 169.82
276.28 62.41 171.77
276.46 61.45 169.57
275.27 65.98 179.34
275.16 65.72 178.46
275.71 62.82 171.82
275.0 65.75 178.24
274.91 65.34 177.0
275.34 63.07 171.8
275.76 60.76 166.52
275.86 60.22 165.27
274.73 65.43 176.93
275.56 60.91 166.56
275.36 61.06 166.57
275.18 61.19 166.59
274.98 61.32 166.59
274.79 61.46 166.59
274.6 61.59 166.61
274.18 62.07 167.13
274.0 62.13 166.96
274.82 65.53 179.26
277.0 59.22 166.62
277.07 58.86 165.8
277.19 59.1 166.64
276.54 63.25 176.38
277.38 58.97 166.65
277.57 58.85 166.66
277.49 60.9 171.9
277.96 58.57 166.62
277.69 60.76 171.91
278.16 58.44 166.64
277.87 60.64 171.91
278.06 60.51 171.92
278.25 60.38 171.91
278.44 60.23 171.86
278.62 59.38 169.95
278.02 63.06 178.54
278.64 60.03 171.7
278.74 59.55 170.62
278.21 62.93 178.55
278.84 59.91 171.72
278.39 62.81 178.55
278.58 62.69 178.56
278.76 62.56 178.55
278.87 62.03 177.37
278.95 62.42 178.53
279.07 61.88 177.32
279.14 62.29 178.53
279.26 61.74 177.3
279.44 61.62 177.3
279.65 61.41 177.12
279.71 61.85 178.39
279.81 61.39 177.37
279.89 61.74 178.44
280.36 61.02 177.39
280.56 60.89 177.4
280.75 60.76 177.39
280.93 60.63 177.4
281.3 60.36 177.34
281.85 59.75 177.43
281.65 59.88 177.43
281.47 60.0 177.43
281.28 60.13 177.41
281.09 60.25 177.4
280.9 60.38 177.39
280.34 60.73 177.32
280.15 60.87 177.34
279.85 61.52 178.51
279.97 61.0 177.35
279.63 61.82 178.91
279.47 61.8 178.56
279.58 61.3 177.45
279.28 61.94 178.58
279.09 62.06 178.58
279.26 61.28 176.83
278.91 62.18 178.57
279.09 61.33 176.65
278.72 62.31 178.57
278.92 61.37 176.46
279.08 60.63 174.79
278.97 60.37 173.93
278.95 59.71 172.14
278.77 59.75 171.95
278.59 59.88 171.95
278.4 60.01 171.95
278.21 60.13 171.92
278.69 57.79 166.66
278.01 60.27 171.93
278.49 57.93 166.66
278.23 58.38 167.37
278.29 58.08 166.69
278.05 58.45 167.25
277.91 58.33 166.67
277.73 58.41 166.56
277.17 58.73 166.38
274.57 65.4 179.25
279.22 60.69 177.19
279.29 61.11 178.41
281.25 59.42 177.49
281.44 59.28 177.47
282.44 62.58 164.99
282.47 62.37 165.05
282.51 62.16 165.13
281.98 61.76 164.68
282.09 62.01 165.06
282.15 62.26 165.31
282.12 62.47 165.26
281.54 63.04 164.99
281.63 62.85 165.25
282.04 62.51 166.53
282.07 62.3 166.57
281.63 61.75 165.04
281.66 61.53 165.09
281.29 61.18 165.11
281.27 61.4 165.09
281.76 62.84 166.99
281.6 63.02 166.49
281.23 62.93 165.28
281.21 63.14 165.24
281.17 63.36 165.17
281.09 63.55 164.94
280.59 63.89 165.11
280.62 63.68 165.16
281.04 63.56 166.49
281.07 63.35 166.54
280.67 62.81 165.15
281.29 62.3 167.07
281.31 62.09 167.09
280.8 60.63 165.13
280.36 60.17 165.14
280.35 60.39 165.15
280.88 61.62 167.13
280.87 61.84 167.12
281.33 62.61 168.79
280.51 64.17 166.45
280.09 64.29 165.12
279.54 64.93 164.93
279.6 64.73 165.08
280.04 64.61 166.45
279.61 64.51 165.07
280.06 64.39 166.49
281.22 62.49 169.87
281.12 62.25 169.51
280.46 61.21 167.16
280.47 60.99 167.13
279.94 59.74 165.18
279.55 59.27 165.17
279.54 59.49 165.19
279.5 59.93 165.16
280.08 60.52 167.15
280.08 60.74 167.2
280.06 60.96 167.18
281.02 62.29 170.57
281.08 62.52 170.81
279.58 65.0 166.47
279.55 65.21 166.41
279.13 65.12 165.05
279.12 65.34 165.05
278.64 65.68 165.08
279.07 65.56 166.47
279.09 65.34 166.49
280.97 62.3 171.97
280.99 62.09 171.98
279.64 60.21 167.24
279.64 59.98 167.18
279.1 58.96 165.21
279.1 58.73 165.17
278.63 58.2 165.05
278.67 58.43 165.23
279.22 59.67 167.28
282.23 60.92 177.29
280.56 61.56 172.01
280.56 61.77 172.05
280.72 62.25 172.68
280.4 62.81 171.76
280.39 63.03 171.75
280.04 63.16 170.67
279.97 63.36 170.48
279.9 63.56 170.29
278.57 65.89 166.48
278.55 66.1 166.46
278.51 66.3 166.38
278.12 66.22 165.09
278.1 66.44 165.06
277.62 66.96 165.04
277.66 66.75 165.12
278.07 66.62 166.44
277.68 66.54 165.14
278.1 66.39 166.46
279.08 64.64 169.29
279.14 64.45 169.46
279.22 64.25 169.65
279.28 64.04 169.81
279.89 63.53 171.68
279.91 63.33 171.73
280.59 61.98 173.65
280.16 61.22 172.08
280.16 61.0 172.04
278.79 59.33 167.28
281.9 59.96 177.47
278.81 59.11 167.3
281.9 59.75 177.42
281.89 59.53 177.35
278.66 57.97 166.59
278.7 57.76 166.67
278.71 57.55 166.64
278.23 58.19 166.66
281.48 59.31 177.42
278.33 58.44 167.02
281.48 59.52 177.43
281.44 59.94 177.4
281.43 60.15 177.42
281.39 60.35 177.33
279.75 60.56 172.09
279.74 60.78 172.1
280.4 62.25 174.54
279.42 63.73 171.69
279.41 63.94 171.69
279.37 64.16 171.6
278.42 65.24 168.78
278.36 65.45 168.62
278.29 65.65 168.44
278.22 65.86 168.25
277.27 65.88 165.18
277.27 66.09 165.23
277.61 66.82 166.49
277.6 67.04 166.51
277.22 67.18 165.3
277.17 67.39 165.18
277.19 67.61 165.27
277.26 67.85 165.57
277.08 67.61 166.49
277.25 67.43 167.01
277.18 67.2 166.74
277.26 67.0 166.97
277.39 66.79 167.33
276.67 66.65 164.97
277.47 66.6 167.56
278.87 64.51 171.64
278.89 64.3 171.66
280.31 61.84 175.74
280.84 60.91 177.29
280.89 60.71 177.39
280.9 60.5 177.39
279.3 60.08 172.14
279.3 59.86 172.09
279.02 59.79 171.17
280.93 60.07 177.4
277.69 58.77 166.65
277.26 58.63 166.41
277.24 58.85 166.39
280.55 60.38 177.41
280.52 60.58 177.35
279.15 60.22 172.85
280.47 61.21 177.32
280.34 61.83 177.04
280.35 62.03 177.12
278.48 64.82 171.65
278.45 65.02 171.61
277.12 66.92 167.71
276.59 66.81 166.0
276.92 67.1 167.1
276.56 67.24 165.97
276.7 67.71 166.53
276.69 67.92 166.55
276.65 68.14 166.45
276.9 67.07 168.69
276.95 66.86 168.79
276.44 66.32 167.03
277.93 65.32 171.64
279.29 63.04 175.56
279.38 62.85 175.82
279.46 62.65 176.03
279.52 62.46 176.2
279.99 61.93 177.6
279.98 61.71 177.53
279.97 61.5 177.46
279.87 61.26 177.07
279.97 61.07 177.35
278.0 60.57 170.92
279.13 60.43 174.53
278.35 60.22 171.95
278.35 60.01 171.92
276.73 59.59 166.61
279.55 61.13 177.54
279.85 61.42 178.6
279.79 61.62 178.45
279.83 61.83 178.62
279.42 62.16 177.34
279.38 62.36 177.26
278.48 63.87 174.7
278.41 64.06 174.51
278.33 64.26 174.28
278.25 64.46 174.06
277.4 65.78 171.61
277.38 65.99 171.6
277.34 66.2 171.51
275.98 65.92 167.08
275.96 66.14 167.06
276.75 66.73 169.71
276.79 66.96 169.88
276.65 66.91 170.64
276.65 66.7 170.59
276.95 66.54 171.52
276.98 66.33 171.59
275.63 65.63 167.08
277.52 65.36 173.12
277.61 65.16 173.37
277.68 64.97 173.57
277.74 64.77 173.72
278.98 62.7 177.27
279.01 62.49 177.32
278.32 62.11 175.02
279.02 62.07 177.27
278.44 61.93 175.36
279.42 61.95 178.54
279.05 61.86 177.34
279.69 61.8 179.39
279.58 61.56 178.97
279.43 61.31 178.42
279.44 61.1 178.43
276.95 61.48 171.86
275.34 61.09 166.59
278.99 62.18 178.57
276.94 61.69 171.86
278.97 62.39 178.55
278.57 62.51 177.3
277.7 62.52 174.5
278.54 62.93 177.3
277.64 62.72 174.34
275.23 65.22 167.11
276.95 65.79 172.77
276.89 65.99 172.63
276.73 66.39 172.2
276.51 66.78 171.58
276.57 67.01 171.83
276.15 66.73 171.88
276.42 66.57 172.69
274.81 64.73 167.12
274.83 64.52 167.14
278.01 63.7 177.23
277.01 63.04 173.88
278.05 63.07 177.22
277.06 62.84 174.0
278.46 62.94 178.51
278.09 62.86 177.3
278.48 62.74 178.54
276.43 62.26 171.84
276.45 62.05 171.84
274.83 61.67 166.57
274.86 61.45 166.59
274.19 61.91 166.08
275.93 62.53 171.81
274.33 62.16 166.57
277.97 63.21 178.52
275.92 62.74 171.83
277.95 63.42 178.52
277.92 63.62 178.43
277.56 63.54 177.26
276.35 63.48 173.37
277.53 63.96 177.25
277.51 64.17 177.25
277.47 64.37 177.16
274.38 63.92 167.13
275.72 65.94 171.89
275.72 66.15 171.93
276.17 66.41 174.9
275.31 65.59 171.95
275.32 65.38 171.93
276.97 64.86 177.14
277.01 64.66 177.23
277.02 64.45 177.22
277.42 64.1 178.44
277.06 64.02 177.24
277.46 63.9 178.5
277.48 63.7 178.53
277.11 63.61 177.31
275.43 63.24 171.82
275.43 63.02 171.78
273.83 62.67 166.57
273.84 62.45 166.54
275.05 63.42 171.82
273.63 63.11 167.18
277.07 64.28 178.49
277.03 64.49 178.43
276.67 64.42 177.24
276.62 65.04 177.21
276.59 65.25 177.17
274.98 65.14 171.97
276.01 66.53 176.88
275.94 66.3 176.6
276.14 65.7 177.12
276.18 65.49 177.19
274.61 64.75 171.98
276.59 64.94 178.4
276.22 64.86 177.2
276.63 64.74 178.48
276.64 64.53 178.48
274.59 64.1 171.79
274.23 64.14 172.03
274.2 64.35 171.98
276.16 65.17 178.47
276.14 65.37 178.43
275.77 65.3 177.23
275.73 65.5 177.15
275.7 65.93 177.16
275.74 66.15 177.32
275.73 66.36 177.34
275.69 66.56 177.25
275.08 66.9 177.06
275.11 66.68 177.12
275.49 66.33 178.25
275.64 66.14 178.69
275.59 65.71 178.45
275.21 65.42 177.17
274.71 65.36 177.01
275.06 65.64 178.19
275.39 65.92 179.33
275.06 65.85 178.23
275.39 66.12 179.36
275.09 66.27 178.44
274.68 66.41 177.16
274.66 66.62 177.12
274.6 67.25 177.09
274.57 67.46 177.05
274.08 67.57 175.48
274.56 67.87 177.08
274.23 67.19 177.06
273.76 67.1 175.55
274.26 66.98 177.13
274.28 66.77 177.14
274.3 66.56 177.15
275.02 65.64 179.25
273.89 67.02 177.2
273.86 67.23 177.15
274.23 65.28 179.18
