138.68 560.76 161.32
138.44 560.76 162.11
138.4 561.02 161.88
138.4 560.95 162.8
138.45 560.71 162.96
138.7 560.72 162.16
138.96 560.74 161.3
139.02 560.74 162.52
138.81 560.77 163.15
138.57 560.76 163.94
138.36 560.81 164.52
138.34 561.09 164.21
138.35 561.06 165.05
138.37 560.78 165.38
138.57 560.72 164.81
138.83 560.73 163.99
138.94 560.75 165.44
138.71 560.76 166.15
138.46 560.74 166.98
138.33 560.88 167.17
138.28 561.13 167.0
138.33 561.02 168.02
138.35 560.74 168.32
138.57 560.71 167.7
138.81 560.72 166.91
138.9 560.78 168.18
138.66 560.76 168.95
138.42 560.75 169.72
138.3 560.9 169.91
138.26 561.15 169.7
138.1 562.82 167.95
137.65 569.95 160.53
137.71 569.69 160.72
138.08 562.8 168.86
138.3 560.91 170.72
138.39 560.72 170.69
138.64 560.74 169.88
138.88 560.74 169.12
138.55 560.52 172.06
138.51 560.77 171.88
138.43 560.99 171.84
138.35 561.19 171.81
138.27 561.39 171.79
138.5 562.63 169.37
138.23 562.9 169.87
138.13 563.06 169.99
137.67 565.28 168.42
138.11 569.8 160.95
137.94 569.89 161.36
137.64 569.77 162.46
137.61 570.05 162.18
137.65 569.85 163.4
137.74 569.65 163.39
138.08 569.82 162.07
138.23 569.7 161.78
137.78 565.17 169.32
137.89 565.01 169.18
138.04 564.89 168.89
138.41 563.2 170.0
138.43 562.91 170.34
138.7 563.27 169.0
138.38 562.53 171.02
138.3 562.11 171.83
138.73 562.69 169.68
138.38 561.91 171.85
138.45 561.7 171.9
138.5 561.44 172.12
138.58 561.25 172.13
138.71 561.11 171.9
138.81 560.94 171.79
138.91 560.76 171.74
138.67 562.72 171.87
138.59 562.92 171.88
138.45 563.06 172.11
138.36 563.24 172.15
138.31 563.47 172.01
138.25 563.71 171.86
138.09 564.12 171.81
138.49 564.98 169.42
138.5 565.32 168.9
138.4 565.48 169.01
138.12 565.42 169.96
138.22 565.88 169.03
138.2 569.73 163.93
138.05 569.83 164.24
137.72 569.69 165.46
137.62 569.87 165.54
137.61 570.02 166.2
137.64 569.74 166.48
137.93 569.83 165.45
138.11 569.77 164.99
138.34 565.89 169.49
138.26 565.45 170.36
138.5 565.78 169.17
138.06 564.85 171.8
138.25 565.12 170.83
138.13 564.64 171.84
138.22 564.44 171.87
138.27 564.19 172.03
138.33 563.97 172.14
138.43 563.79 172.07
138.55 563.65 171.86
138.64 563.44 171.9
138.94 562.91 171.65
139.48 562.4 170.66
138.5 564.93 171.9
138.42 565.13 171.87
138.3 565.29 172.04
138.2 565.45 172.15
138.14 565.7 171.99
138.09 565.92 171.86
138.0 566.13 171.84
137.93 566.34 171.79
138.09 569.8 166.62
137.91 569.86 167.09
137.63 569.78 168.09
137.59 570.05 167.84
137.61 570.02 168.75
137.64 569.74 169.04
137.91 569.81 168.11
138.1 569.76 167.59
137.63 567.77 171.73
137.88 567.16 171.79
137.95 566.96 171.83
138.03 566.75 171.86
138.1 566.52 171.96
138.14 566.29 172.14
138.24 566.1 172.09
138.37 565.96 171.87
138.46 565.76 171.87
138.65 565.41 171.72
139.37 565.83 171.06
138.28 567.77 171.89
138.19 567.98 171.86
138.07 568.11 172.08
137.97 568.29 172.14
137.93 568.54 171.93
137.86 568.77 171.85
137.78 568.97 171.83
137.7 569.18 171.82
138.09 569.76 169.78
137.92 569.83 170.22
137.64 569.73 171.26
137.6 570.01 170.99
137.72 569.91 171.83
137.8 569.7 171.86
137.86 569.49 171.93
137.91 569.23 172.13
138.01 569.05 172.07
138.14 568.91 171.87
138.22 568.71 171.86
139.22 567.56 170.31
138.03 569.72 172.93
137.84 569.76 173.47
138.0 569.99 172.65
137.75 569.95 173.47
137.85 569.78 174.22
138.27 569.71 174.76
138.16 569.87 174.88
138.25 570.06 160.42
138.24 570.13 161.38
138.24 569.93 161.25
138.07 569.59 160.47
137.69 569.52 160.54
137.73 569.9 160.91
138.23 570.15 162.68
138.22 570.34 162.79
138.23 570.16 163.55
138.23 569.97 163.44
137.76 569.91 161.88
138.81 560.97 161.61
138.99 561.13 162.27
138.98 561.34 162.38
137.73 569.88 163.71
138.2 569.93 165.26
137.8 570.05 164.04
138.24 570.11 165.51
138.23 570.31 165.6
138.23 570.2 166.37
138.24 570.0 166.28
138.97 561.22 163.17
138.98 561.01 163.08
138.54 560.92 161.6
138.55 560.93 163.17
138.96 561.03 164.56
138.96 561.23 164.68
137.74 569.91 166.23
138.22 569.95 167.82
138.22 570.14 167.94
138.22 570.34 168.08
138.22 570.26 168.84
138.23 570.05 168.76
138.21 569.86 168.58
137.79 570.0 167.3
137.73 569.83 166.98
138.95 561.34 165.62
138.95 561.15 165.5
138.95 560.94 165.37
138.45 560.87 163.68
138.88 560.95 166.61
138.93 561.14 166.87
138.91 561.34 166.96
138.69 565.34 168.78
138.71 565.53 168.95
138.72 565.72 169.12
138.64 565.94 168.98
137.75 569.93 168.63
138.22 569.97 170.19
138.21 570.17 170.29
138.23 570.28 171.44
138.23 570.08 171.33
137.73 569.86 169.54
138.54 566.08 169.81
138.6 565.86 169.87
138.24 565.97 168.75
138.36 565.74 169.02
138.67 565.45 169.84
138.39 565.53 168.98
138.61 565.27 169.53
138.45 565.13 168.91
138.81 563.44 169.02
138.87 563.23 169.1
138.87 563.04 168.95
139.5 562.67 170.77
138.93 561.24 168.02
138.93 561.04 167.91
138.68 560.9 167.02
138.41 560.91 167.94
138.9 560.98 169.59
138.9 561.18 169.71
138.89 561.38 169.82
138.54 562.85 169.61
138.5 563.45 169.87
138.26 563.51 169.12
138.39 563.67 169.64
138.15 565.11 169.79
137.79 565.41 168.79
138.32 565.45 170.54
138.65 565.55 171.69
138.21 565.68 170.35
137.81 565.79 169.12
138.26 565.85 170.63
138.39 566.99 171.78
138.37 567.19 171.82
138.33 567.4 171.82
138.29 567.6 171.83
138.22 568.02 171.85
138.18 568.22 171.86
138.14 568.42 171.87
138.1 568.63 171.87
138.07 568.83 171.89
138.04 569.04 171.92
138.02 569.24 171.98
137.99 569.44 172.03
137.97 569.64 172.08
137.94 569.84 172.12
137.8 570.08 171.83
138.02 570.2 172.6
137.99 569.91 173.03
137.62 569.84 171.77
137.72 569.61 171.97
137.76 569.4 171.97
137.83 569.18 172.06
137.9 568.97 172.13
137.94 568.76 172.15
137.99 568.55 172.16
138.03 568.34 172.15
138.06 568.14 172.14
138.09 567.94 172.11
138.12 567.74 172.06
138.14 567.53 172.0
138.16 567.33 171.95
138.19 567.13 171.9
138.22 566.93 171.88
138.25 566.72 171.87
138.29 566.52 171.86
138.33 566.31 171.86
138.37 566.1 171.84
138.4 565.9 171.83
138.47 565.49 171.78
137.75 565.7 169.57
138.51 565.28 171.77
137.77 565.49 169.5
138.33 565.14 171.11
138.57 564.87 171.74
138.43 563.15 170.17
138.61 562.91 170.61
138.09 563.05 169.0
138.31 562.79 169.58
138.89 561.26 170.47
138.9 561.06 170.38
138.73 560.91 169.75
138.48 560.9 170.02
138.88 561.0 171.39
138.87 561.2 171.47
138.86 561.39 171.58
138.76 562.2 171.79
138.72 562.41 171.79
138.67 562.62 171.74
138.58 563.23 171.85
138.54 563.43 171.85
138.5 563.64 171.85
138.47 563.84 171.86
138.43 564.05 171.88
138.4 564.25 171.9
138.37 564.45 171.94
138.35 564.65 172.01
138.33 564.85 172.06
138.31 565.05 172.12
138.27 565.25 172.14
138.24 565.45 172.16
138.2 565.66 172.16
138.16 565.87 172.16
138.11 566.08 172.14
138.04 566.29 172.03
137.98 566.51 171.99
137.93 566.72 171.97
137.61 567.98 171.73
138.14 569.93 174.71
137.89 570.08 174.78
137.9 569.89 174.66
138.15 564.38 172.01
138.22 564.16 172.08
138.27 563.96 172.12
138.32 563.75 172.13
138.36 563.54 172.15
138.4 563.34 172.15
138.44 563.13 172.15
138.47 562.92 172.12
138.5 562.72 172.09
138.52 562.52 172.03
138.54 562.32 171.97
138.57 562.12 171.92
138.59 561.92 171.88
138.63 561.72 171.87
138.66 561.51 171.85
138.7 561.31 171.85
138.74 561.1 171.83
138.78 560.89 171.83
138.81 560.69 171.81
138.85 560.48 171.81
