430.88 655.52 162.34
432.51 651.69 163.74
432.44 651.89 163.7
432.16 651.97 164.43
430.97 655.29 163.78
430.84 655.45 163.99
430.54 655.5 164.82
430.86 655.73 163.58
430.93 655.76 164.43
430.82 655.43 165.17
430.82 655.16 165.52
430.86 654.94 165.69
432.35 652.09 164.87
432.44 651.9 164.82
432.67 651.79 164.27
432.8 651.87 164.97
432.65 652.02 165.22
432.37 652.1 165.97
431.13 654.6 166.49
430.87 655.19 166.53
430.86 655.44 166.24
430.85 655.54 167.14
430.94 655.33 167.11
431.04 655.14 167.08
431.39 654.35 167.02
431.42 654.12 167.24
432.23 652.87 166.4
432.36 652.71 166.22
432.25 652.38 166.96
432.49 652.54 166.03
432.34 652.18 166.94
432.44 652.0 166.88
433.18 652.23 164.39
433.27 652.04 164.34
432.47 652.09 168.29
432.35 652.27 168.42
432.23 653.47 167.27
431.84 653.46 168.44
432.09 653.63 167.48
431.8 653.68 168.27
431.8 653.94 167.94
431.05 655.21 168.58
430.92 655.38 168.78
430.84 655.57 168.75
431.0 655.3 170.0
431.29 655.0 169.49
431.43 654.83 169.3
431.56 654.67 169.09
431.72 654.52 168.84
432.17 653.3 169.04
432.19 653.06 169.28
432.33 652.39 169.71
432.53 652.27 169.26
432.5 652.3 170.57
432.35 652.46 170.8
432.48 652.8 169.98
431.39 655.36 170.01
431.04 655.37 171.04
431.27 655.53 170.17
431.1 655.67 170.49
430.95 655.53 171.98
431.09 655.35 171.8
432.45 652.47 172.7
431.0 655.51 173.21
430.26 657.28 173.18
430.38 657.53 173.74
430.46 657.33 173.76
430.55 657.14 173.75
430.63 656.94 173.75
430.71 656.75 173.76
430.79 656.55 173.76
430.88 656.35 173.77
430.95 656.16 173.78
431.04 655.96 173.76
431.16 655.54 173.93
431.29 655.38 173.77
431.37 655.18 173.76
431.46 654.99 173.77
431.54 654.79 173.77
431.63 654.6 173.76
431.71 654.41 173.74
431.8 654.21 173.72
431.99 654.08 173.32
432.54 652.45 173.75
433.59 650.89 172.61
433.71 650.92 173.83
433.63 651.12 173.83
433.54 651.31 173.84
433.37 651.7 173.85
433.2 652.08 173.87
432.48 652.35 175.68
432.53 652.63 175.2
431.05 655.62 175.84
430.99 655.84 175.74
432.61 652.67 176.13
432.75 652.51 175.9
432.85 651.82 162.39
432.98 652.32 164.43
432.98 652.12 164.4
432.77 651.89 163.68
432.5 651.67 162.8
432.41 651.55 163.97
432.77 652.19 165.22
432.8 652.39 165.35
432.62 652.8 165.94
432.6 652.59 165.86
432.55 652.38 165.66
432.63 652.18 165.87
432.12 651.74 164.2
432.65 652.18 167.19
432.52 652.39 166.83
432.37 653.0 166.45
432.4 653.21 166.58
431.05 655.67 162.72
431.08 655.62 164.07
431.09 655.41 164.09
432.2 653.77 167.33
432.18 653.56 167.25
432.13 653.36 167.05
432.55 652.55 168.25
432.65 652.35 168.53
432.64 652.14 168.46
433.81 651.06 173.72
433.63 651.25 173.19
432.72 652.43 170.5
432.68 652.63 170.42
432.56 652.84 170.06
432.44 653.04 169.7
432.31 653.24 169.33
432.18 653.45 168.95
432.04 653.64 168.57
431.91 653.84 168.19
431.81 654.05 167.91
431.89 654.26 168.18
431.91 654.46 168.29
431.53 654.46 167.08
431.4 654.66 166.71
431.15 655.07 165.98
431.02 655.27 165.61
430.98 655.48 165.52
431.08 655.68 165.86
431.05 655.75 166.91
431.07 655.54 166.94
431.14 655.33 167.12
431.71 654.73 168.85
431.68 654.53 168.69
432.61 652.51 171.33
433.4 651.93 173.72
433.42 651.72 173.75
433.45 651.53 173.82
433.46 651.32 173.81
433.47 651.12 173.82
433.01 652.05 173.82
433.01 652.25 173.83
432.99 652.46 173.81
432.96 652.65 173.76
432.61 652.64 172.63
431.47 655.07 169.44
431.49 655.27 169.56
431.15 655.47 168.52
431.09 655.67 168.34
431.32 655.68 170.21
430.94 655.68 169.0
431.28 655.47 170.06
432.53 653.67 173.71
432.55 653.46 173.75
432.58 653.27 173.82
432.6 653.06 173.82
432.6 652.85 173.81
432.68 652.66 174.03
432.75 652.67 175.84
432.73 652.87 175.8
432.04 654.06 173.81
432.02 654.26 173.81
432.01 654.47 173.8
431.99 654.67 173.75
431.1 655.47 171.1
431.15 655.67 171.3
431.52 655.49 173.75
431.54 655.29 173.8
431.56 655.09 173.82
431.57 654.89 173.81
431.13 655.63 173.98
431.15 655.82 174.08
431.04 656.03 173.77
431.04 656.23 173.78
431.02 656.43 173.76
430.62 657.31 173.66
430.66 657.11 173.73
430.67 656.91 173.73
430.68 656.7 173.74
431.19 655.69 175.2
431.06 655.84 176.13
433.14 652.37 164.42
433.14 652.16 164.24
433.05 651.94 163.74
432.53 651.67 163.8
432.8 652.13 165.1
432.81 652.33 165.3
432.78 652.52 165.4
431.1 655.85 163.21
431.05 655.8 164.41
431.1 655.62 164.41
431.07 655.41 164.12
432.49 653.04 166.4
432.49 652.85 166.22
432.47 652.64 165.97
432.62 652.08 165.92
432.16 651.99 164.37
432.17 651.79 164.22
432.63 652.15 167.69
432.65 652.35 167.96
432.56 652.53 167.83
432.08 653.64 167.35
432.09 653.84 167.57
432.07 654.03 167.7
431.33 654.91 166.19
431.19 655.09 165.92
431.05 655.26 165.62
430.92 655.43 165.38
431.1 655.66 166.16
430.63 655.8 164.79
431.1 655.6 167.31
431.16 655.41 167.34
431.79 654.72 168.69
431.81 654.53 168.55
431.81 654.33 168.37
431.69 654.11 167.8
431.82 653.93 168.03
431.96 653.76 168.33
432.12 653.58 168.65
432.26 653.41 168.94
432.4 653.24 169.22
432.59 652.48 169.14
432.64 652.29 169.1
433.66 651.26 173.2
432.62 652.63 171.2
431.36 655.18 169.58
431.37 655.38 169.82
431.37 655.58 170.0
431.36 655.77 170.13
431.01 655.72 168.97
431.15 655.7 170.9
431.16 655.5 170.78
432.15 654.29 172.78
432.76 653.22 173.73
432.82 653.04 173.74
432.89 652.85 173.78
432.95 652.67 173.79
433.0 652.48 173.81
433.06 652.3 173.82
433.12 652.12 173.83
433.22 651.74 173.81
433.28 651.55 173.8
433.33 651.36 173.81
432.72 652.74 174.77
431.94 654.36 173.8
431.89 654.54 173.81
431.83 654.73 173.81
431.77 654.92 173.8
431.72 655.1 173.8
431.65 655.29 173.76
431.59 655.47 173.74
431.53 655.65 173.71
431.15 655.6 172.46
431.47 655.84 173.7
431.15 655.8 172.64
430.47 657.69 173.65
430.53 657.5 173.66
430.6 657.32 173.7
430.66 657.13 173.72
430.72 656.95 173.73
430.83 656.58 173.74
430.88 656.39 173.74
430.94 656.2 173.75
431.16 655.85 174.11
431.22 655.87 175.99
431.06 656.03 175.64
430.72 655.78 175.59
