1165880.11 4919921.20 769.71
1165878.47 4919921.30 763.20
1165878.39 4919920.97 763.12
1165879.98 4919920.55 769.69
1165879.97 4919920.39 769.74
1165879.90 4919920.23 769.63
1165879.82 4919920.07 769.38
1165879.78 4919919.90 769.35
1165879.74 4919919.74 769.33
1165879.71 4919919.58 769.31
1165879.68 4919919.42 769.30
1165879.64 4919919.27 769.29
1165879.62 4919919.11 769.29
1165879.58 4919918.95 769.28
1165879.56 4919918.79 769.28
1165879.52 4919918.63 769.28
1165879.49 4919918.47 769.27
1165879.47 4919918.30 769.27
1165879.43 4919918.14 769.25
1165879.41 4919917.98 769.25
1165878.77 4919916.36 767.89
1165878.62 4919915.84 769.34
1165878.66 4919916.00 769.39
1165878.70 4919916.16 769.41
1165878.75 4919916.32 769.49
1165878.78 4919916.48 769.53
1165878.83 4919916.65 769.58
1165878.87 4919916.81 769.63
1165878.91 4919916.97 769.69
1165878.96 4919917.13 769.74
1165878.99 4919917.29 769.80
1165879.03 4919917.45 769.80
1165879.09 4919917.61 769.90
1165879.12 4919917.77 769.97
1165879.17 4919917.94 770.02
1165879.20 4919918.10 770.06
1165879.00 4919918.10 769.24
1165879.25 4919918.26 770.11
1165879.30 4919918.42 770.17
1165879.33 4919918.58 770.22
1165879.37 4919918.73 770.26
1165879.41 4919918.90 770.32
1165879.46 4919919.06 770.37
1165879.54 4919919.38 770.48
1165879.58 4919919.54 770.52
1165879.62 4919919.70 770.58
1165879.67 4919919.86 770.63
1165879.32 4919919.88 769.26
1165879.71 4919920.02 770.68
1165879.75 4919920.18 770.73
1165879.79 4919920.36 770.78
1165879.92 4919920.83 770.94
1165880.00 4919921.15 771.03
1165880.04 4919921.31 771.08
1165879.58 4919921.34 769.27
1165878.23 4919921.93 763.51
1165879.70 4919922.00 769.26
1165878.27 4919922.10 763.58
1165878.31 4919922.26 763.59
1165878.11 4919922.62 762.54
1165878.09 4919922.79 762.36
1165878.07 4919922.95 762.15
1165878.05 4919923.13 761.93
1165878.03 4919923.30 761.76
1165879.75 4919923.30 768.56
1165879.23 4919923.35 766.47
1165880.57 4919923.39 771.73
1165880.22 4919923.42 770.32
1165880.65 4919923.53 771.91
1165880.63 4919923.71 771.68
1165878.28 4919923.94 762.28
1165880.77 4919924.02 772.05
1165880.81 4919924.18 772.12
1165880.79 4919924.51 771.75
1165878.27 4919924.79 761.67
1165880.84 4919924.82 771.74
1165880.89 4919925.14 771.74
1165880.28 4919925.22 769.27
1165878.25 4919925.47 761.08
1165880.93 4919925.30 771.74
1165880.94 4919925.46 771.69
1165880.97 4919925.62 771.69
1165880.99 4919925.79 771.69
1165880.72 4919925.82 770.59
1165881.01 4919925.95 771.64
1165880.15 4919926.05 768.15
1165879.78 4919926.11 766.68
1165881.03 4919926.11 771.58
1165878.54 4919926.44 761.57
1165881.04 4919926.28 771.53
1165880.51 4919926.50 769.25
1165878.69 4919927.11 761.68
1165878.72 4919927.27 761.69
1165880.90 4919927.10 770.39
1165878.74 4919927.44 761.66
1165878.80 4919927.76 761.67
1165880.83 4919927.95 769.50
1165879.29 4919928.37 763.15
1165880.84 4919928.28 769.31
1165879.31 4919928.54 763.12
1165880.92 4919928.43 769.54
1165880.90 4919928.60 769.34
1165880.92 4919928.76 769.29
1165880.95 4919928.93 769.29
1165880.97 4919929.08 769.28
1165881.00 4919929.25 769.27
1165881.03 4919929.40 769.28
1165880.75 4919933.12 767.25
1165880.75 4919932.95 767.38
1165880.89 4919931.06 769.27
1165880.87 4919930.90 769.28
1165880.84 4919930.74 769.29
1165880.81 4919930.58 769.29
1165880.79 4919930.42 769.31
1165880.77 4919930.26 769.39
1165880.78 4919930.09 769.49
1165880.85 4919929.57 770.15
1165880.80 4919929.42 770.10
1165880.89 4919929.07 770.68
1165880.88 4919928.91 770.74
1165880.86 4919928.75 770.79
1165880.49 4919928.81 769.27
1165880.84 4919928.59 770.83
1165880.83 4919928.42 770.90
1165880.81 4919928.25 770.94
1165880.80 4919928.08 771.02
1165878.77 4919927.24 763.66
1165880.13 4919926.88 769.25
1165878.76 4919927.07 763.72
1165878.73 4919926.91 763.73
1165879.41 4919926.15 766.96
1165879.05 4919926.20 765.49
1165880.35 4919925.86 770.86
1165880.10 4919925.89 769.85
1165879.75 4919925.93 768.44
1165880.86 4919925.62 773.02
1165880.57 4919925.66 771.85
1165880.85 4919925.46 773.09
1165878.36 4919925.28 763.44
1165879.76 4919924.78 769.28
1165878.17 4919924.96 762.93
1165880.82 4919924.49 773.67
1165879.72 4919924.61 769.27
1165880.71 4919924.18 773.49
1165878.30 4919924.45 763.81
1165878.37 4919923.94 764.44
1165878.19 4919923.95 763.71
1165880.62 4919923.54 773.57
1165880.44 4919923.40 772.97
1165880.13 4919923.43 771.71
1165879.68 4919923.31 770.06
1165879.20 4919923.36 768.14
1165878.11 4919923.13 763.96
1165879.31 4919922.36 769.25
1165879.14 4919921.39 769.27
1165879.11 4919921.23 769.30
1165878.95 4919920.41 769.25
1165878.94 4919920.26 769.28
1165878.66 4919918.82 769.25
1165878.64 4919918.65 769.26
1165878.63 4919918.48 769.36
1165878.62 4919918.32 769.42
1165878.56 4919918.17 769.30
1165878.53 4919918.00 769.31
1165878.66 4919917.84 769.94
1165878.63 4919917.68 769.92
1165878.52 4919918.88 770.32
1165878.55 4919919.03 770.34
1165878.62 4919919.36 770.37
1165878.64 4919919.52 770.33
1165878.39 4919919.53 769.34
1165878.47 4919919.69 769.58
1165878.49 4919919.85 769.52
1165878.46 4919920.01 769.33
1165878.50 4919920.18 769.32
1165878.53 4919920.33 769.34
1165878.60 4919920.84 769.26
1165878.63 4919921.00 769.27
1165878.69 4919921.33 769.27
1165878.94 4919922.78 769.25
1165880.56 4919923.61 775.02
1165878.41 4919924.16 766.20
1165878.21 4919924.18 765.41
1165879.20 4919924.25 769.26
1165878.22 4919924.35 765.31
1165879.23 4919924.40 769.23
1165878.21 4919924.51 765.18
1165880.67 4919924.40 774.92
1165878.22 4919924.68 765.09
1165880.71 4919924.57 775.00
1165880.77 4919924.72 775.11
1165878.23 4919925.01 764.88
1165880.72 4919924.89 774.78
1165879.35 4919925.05 769.27
1165880.71 4919925.21 774.52
1165880.80 4919925.52 774.66
1165880.76 4919925.69 774.34
1165880.47 4919925.72 773.24
1165880.20 4919925.77 772.14
1165878.68 4919926.30 765.76
1165879.74 4919927.31 769.26
1165879.87 4919927.95 769.27
1165880.41 4919931.03 769.28
1165880.44 4919931.19 769.26
1165880.66 4919931.31 770.03
1165880.45 4919931.35 769.20
1165880.67 4919931.47 769.98
1165880.69 4919931.64 769.91
1165880.69 4919931.80 769.84
1165880.71 4919931.97 769.77
1165880.67 4919932.15 769.52
1165880.65 4919932.32 769.33
1165880.67 4919932.47 769.27
1165880.69 4919932.64 769.27
1165880.73 4919932.80 769.27
1165880.81 4919933.28 769.26
1165880.83 4919933.44 769.24
1165880.35 4919932.37 769.73
1165880.33 4919932.21 769.78
1165880.32 4919932.04 769.80
1165880.29 4919931.88 769.85
1165880.27 4919931.72 769.89
1165880.25 4919931.56 769.91
1165880.07 4919931.43 769.30
1165880.05 4919931.26 769.29
1165880.04 4919931.10 769.41
1165880.02 4919930.94 769.47
1165879.93 4919930.63 769.32
1165879.90 4919930.47 769.32
1165879.83 4919930.14 769.28
1165879.80 4919929.97 769.25
1165879.78 4919929.81 769.28
1165879.45 4919928.04 769.27
1165879.39 4919927.72 769.26
1165879.38 4919927.55 769.29
1165879.03 4919926.11 768.98
1165878.65 4919926.16 767.44
1165880.64 4919925.58 775.68
1165880.72 4919925.40 776.14
1165880.83 4919925.07 776.77
1165880.61 4919925.09 775.90
1165880.77 4919924.91 776.64
1165880.73 4919924.77 776.60
1165880.75 4919924.60 776.83
1165880.74 4919924.44 776.86
1165878.22 4919924.72 766.76
1165880.71 4919924.28 776.87
1165878.21 4919924.55 766.84
1165880.62 4919923.80 776.88
1165880.60 4919923.64 776.88
1165880.57 4919923.49 776.89
1165880.52 4919923.18 776.88
1165880.46 4919922.87 776.88
1165878.55 4919923.03 769.26
1165878.42 4919922.22 769.31
1165878.39 4919922.06 769.35
1165878.34 4919921.73 769.35
1165878.29 4919921.57 769.28
1165878.57 4919920.90 770.87
1165878.54 4919920.74 770.84
1165878.50 4919920.57 770.80
1165878.46 4919920.42 770.78
1165879.21 4919919.27 774.55
1165879.10 4919919.32 775.83
1165879.18 4919919.47 776.05
1165879.53 4919920.25 776.89
1165879.56 4919920.40 776.86
1165879.59 4919920.57 776.88
1165879.64 4919920.88 776.89
1165879.68 4919921.04 776.89
1165879.71 4919921.21 776.89
1165879.74 4919921.37 776.92
1165879.78 4919921.52 776.96
1165879.81 4919921.68 776.99
1165879.86 4919921.83 777.05
1165878.40 4919921.93 771.22
1165878.43 4919922.09 771.25
1165878.47 4919922.26 771.29
1165878.50 4919922.42 771.31
1165880.18 4919922.45 777.87
1165880.18 4919922.60 777.78
1165879.98 4919922.77 776.87
1165878.17 4919923.43 769.28
1165880.46 4919923.69 778.11
1165880.15 4919923.72 776.89
1165879.93 4919923.75 776.03
1165880.50 4919923.84 778.21
1165880.54 4919924.00 778.22
1165880.48 4919924.16 777.91
1165880.49 4919924.32 777.80
1165878.52 4919924.54 769.90
1165880.50 4919924.48 777.71
1165878.57 4919924.69 769.97
1165880.50 4919924.63 777.63
1165878.61 4919924.85 770.05
1165878.65 4919925.02 770.09
1165880.61 4919924.94 777.88
1165878.49 4919925.20 769.35
1165880.66 4919925.10 777.95
1165880.38 4919925.13 776.81
1165878.53 4919925.36 769.38
1165880.71 4919925.25 778.03
1165880.42 4919925.29 776.86
1165880.68 4919925.41 777.81
1165878.66 4919926.17 769.34
1165880.69 4919926.06 777.36
1165878.70 4919926.33 769.36
1165880.72 4919926.21 777.41
1165878.72 4919926.48 769.36
1165880.63 4919926.38 776.94
1165878.75 4919926.65 769.34
1165880.65 4919926.54 776.91
1165880.68 4919926.70 776.89
1165880.71 4919926.85 776.89
1165878.84 4919927.13 769.37
1165880.73 4919927.01 776.88
1165878.85 4919927.29 769.29
1165879.04 4919927.43 769.93
1165878.92 4919927.61 769.35
1165878.94 4919927.78 769.29
1165878.97 4919927.94 769.30
1165878.99 4919928.10 769.31
1165879.49 4919928.68 770.82
1165879.50 4919928.84 770.79
1165879.52 4919929.00 770.76
1165879.55 4919929.16 770.72
1165879.56 4919929.33 770.68
1165879.58 4919929.49 770.64
1165879.60 4919929.65 770.61
1165880.45 4919930.02 775.31
1165880.41 4919929.87 775.26
1165880.57 4919928.54 776.88
1165880.55 4919928.37 776.87
1165880.52 4919928.22 776.89
1165880.50 4919928.06 776.88
1165880.48 4919927.90 776.92
1165880.46 4919927.75 776.98
1165880.32 4919927.12 776.87
1165880.54 4919926.77 777.96
1165878.91 4919927.00 771.39
1165878.89 4919926.84 771.43
1165880.21 4919926.49 776.89
1165878.87 4919926.68 771.47
1165880.67 4919926.27 778.85
1165878.84 4919926.52 771.49
1165880.67 4919926.12 778.96
1165878.83 4919926.37 771.51
1165880.66 4919925.96 779.03
1165880.65 4919925.80 779.12
1165880.10 4919925.87 776.86
1165880.65 4919925.64 779.20
1165879.36 4919925.80 774.00
1165880.64 4919925.48 779.27
1165880.62 4919925.32 779.35
1165880.61 4919925.16 779.36
1165880.57 4919925.01 779.35
1165878.47 4919925.27 770.91
1165879.85 4919924.45 776.89
1165878.44 4919924.61 771.26
1165880.54 4919924.22 779.79
1165878.44 4919924.45 771.36
1165880.48 4919924.07 779.63
1165878.58 4919924.27 772.04
1165880.42 4919923.76 779.62
1165878.35 4919923.48 771.68
1165879.62 4919923.21 776.87
1165879.55 4919922.72 776.91
1165879.36 4919921.79 776.86
1165879.34 4919921.63 776.88
1165879.22 4919921.00 776.87
1165879.19 4919920.83 776.87
1165879.17 4919920.68 776.89
1165879.14 4919920.53 776.87
1165879.11 4919920.37 776.87
1165879.08 4919920.22 776.88
1165879.05 4919920.05 776.89
1165879.03 4919919.90 776.90
1165879.01 4919919.74 776.94
1165879.04 4919919.58 777.16
1165878.95 4919919.27 777.05
1165878.90 4919919.12 776.91
1165878.90 4919920.50 777.70
1165878.94 4919920.83 777.64
1165878.79 4919921.00 776.91
1165878.82 4919921.15 776.90
1165878.85 4919921.31 776.91
1165878.89 4919921.48 776.93
1165878.98 4919922.11 776.89
1165879.01 4919922.27 776.87
1165879.11 4919922.89 776.88
1165879.20 4919923.37 776.88
1165878.61 4919923.58 774.37
1165880.37 4919923.89 781.10
1165880.39 4919924.04 781.08
1165880.45 4919924.19 781.22
1165878.63 4919924.71 773.68
1165878.66 4919924.88 773.71
1165879.48 4919924.94 776.88
1165878.73 4919925.03 773.89
1165878.78 4919925.18 773.94
1165880.55 4919925.28 780.85
1165880.27 4919925.48 779.61
1165880.01 4919925.51 778.58
1165879.76 4919925.54 777.55
1165879.51 4919925.74 776.46
1165879.24 4919925.77 775.36
1165878.96 4919925.80 774.23
1165879.70 4919926.20 776.86
1165879.75 4919926.52 776.88
1165879.95 4919927.60 776.88
1165879.97 4919927.77 776.86
1165880.05 4919928.24 776.87
1165880.36 4919928.67 777.75
1165880.13 4919928.72 776.80
1165880.37 4919928.82 777.67
1165880.17 4919928.86 776.87
1165880.38 4919929.16 777.50
1165880.35 4919929.32 777.30
1165880.32 4919929.49 777.03
1165880.32 4919929.65 776.90
1165880.34 4919929.81 776.89
1165880.37 4919929.97 776.89
1165880.39 4919930.13 776.88
1165880.42 4919930.29 776.88
1165880.45 4919930.45 776.87
1165879.98 4919929.18 777.53
1165879.93 4919928.86 777.57
1165879.87 4919928.71 777.42
1165879.72 4919928.58 776.93
1165879.69 4919928.43 776.89
1165879.63 4919928.10 776.89
1165879.61 4919927.94 776.92
1165879.57 4919927.78 776.91
1165879.56 4919927.63 776.94
1165879.34 4919926.52 776.88
1165879.32 4919926.37 776.87
1165879.16 4919925.75 776.71
1165878.89 4919925.79 775.61
1165880.51 4919925.26 782.34
1165880.46 4919924.96 782.38
1165880.43 4919924.80 782.37
1165880.41 4919924.65 782.40
1165880.39 4919924.50 782.40
1165878.84 4919924.67 776.19
1165880.36 4919924.35 782.39
1165878.78 4919924.52 776.08
1165878.54 4919924.54 775.11
1165880.33 4919924.19 782.40
1165878.73 4919924.36 775.97
1165880.29 4919923.88 782.45
1165879.71 4919923.78 780.25
1165879.27 4919923.82 778.49
1165878.81 4919923.71 776.77
1165878.75 4919923.07 776.95
1165878.71 4919922.92 776.91
1165878.68 4919922.76 776.90
1165878.65 4919922.60 776.89
1165878.62 4919922.44 776.92
1165878.91 4919922.11 778.28
1165878.90 4919921.95 778.34
1165878.86 4919921.78 778.29
1165878.81 4919921.63 778.24
1165878.72 4919922.90 778.85
1165878.76 4919923.06 778.90
1165878.79 4919923.23 778.95
1165879.08 4919923.82 779.62
1165879.79 4919923.91 782.37
1165880.03 4919924.04 783.22
1165878.80 4919924.17 778.31
1165880.06 4919924.20 783.23
1165878.76 4919924.34 778.00
1165878.73 4919924.50 777.81
1165878.73 4919924.66 777.70
1165878.73 4919924.82 777.60
1165880.22 4919924.80 783.44
1165878.76 4919924.98 777.57
1165880.17 4919924.96 783.14
1165878.85 4919925.13 777.84
1165878.90 4919925.28 777.92
1165880.21 4919925.27 783.07
1165879.37 4919926.97 778.61
1165879.38 4919927.13 778.55
1165879.39 4919927.28 778.50
1165879.41 4919927.44 778.45
1165878.95 4919925.98 779.16
1165878.94 4919925.82 779.22
1165878.92 4919925.66 779.29
1165879.92 4919925.39 783.39
1165879.97 4919925.23 783.68
1165878.85 4919925.20 779.36
1165879.87 4919924.92 783.53
1165878.83 4919925.04 779.35
1165878.80 4919924.89 779.35
1165878.78 4919924.73 779.36
1165878.87 4919924.56 779.85
1165878.78 4919924.42 779.61
1165879.84 4919924.14 783.94
1165878.70 4919924.27 779.37
1165879.78 4919923.99 783.80
1165879.39 4919923.88 782.36
1165879.07 4919923.91 781.08
1165879.08 4919923.94 782.78
1165879.44 4919924.07 784.15
1165879.22 4919924.09 783.26
1165879.47 4919924.22 784.15
1165879.52 4919924.53 784.14
1165878.92 4919924.59 781.76
1165879.63 4919925.14 784.14
1165879.64 4919925.29 784.12
1165879.23 4919925.50 782.32
1165879.15 4919925.15 784.03
1165879.06 4919924.53 784.11
1165874.37 4919931.59 733.77
1165874.36 4919931.41 733.68
1165874.33 4919931.21 733.74
1165874.28 4919931.00 733.81
1165874.24 4919930.78 733.87
1165874.21 4919930.59 733.89
1165874.19 4919930.38 733.90
1165874.16 4919930.19 733.90
1165874.14 4919929.99 733.88
1165874.11 4919929.80 733.89
1165874.51 4919929.63 734.00
1165874.41 4919929.76 734.50
1165874.43 4919929.96 734.51
1165874.45 4919930.15 734.50
1165874.48 4919930.35 734.51
1165874.50 4919930.54 734.51
1165874.53 4919930.74 734.51
1165874.55 4919930.93 734.51
1165874.58 4919931.13 734.51
1165874.60 4919931.32 734.51
1165874.63 4919931.53 734.51
1165874.84 4919931.57 734.54
1165874.81 4919931.38 734.52
1165874.80 4919931.18 734.52
1165874.77 4919930.99 734.52
1165874.75 4919930.79 734.51
1165874.72 4919930.60 734.51
1165874.70 4919930.40 734.52
1165874.67 4919930.20 734.51
1165874.65 4919929.99 734.51
1165874.62 4919929.80 734.52
1165874.64 4919929.63 734.35
1165875.15 4919929.58 733.95
1165875.04 4919929.68 734.51
1165875.06 4919929.88 734.52
1165875.06 4919930.06 734.60
1165875.08 4919930.25 734.62
1165875.11 4919930.46 734.61
1165875.16 4919930.67 734.52
1165875.19 4919930.86 734.51
1165875.21 4919931.06 734.51
1165875.24 4919931.26 734.51
1165875.26 4919931.46 734.51
1165875.44 4919931.42 734.50
1165875.42 4919931.21 734.51
1165875.39 4919931.02 734.51
1165875.37 4919930.82 734.51
1165875.34 4919930.63 734.52
1165875.29 4919930.41 734.64
1165875.24 4919930.21 734.71
1165875.23 4919930.01 734.70
1165875.24 4919929.84 734.52
1165875.23 4919929.65 734.51
1165875.35 4919929.54 733.89
1165874.31 4919920.24 735.04
1165874.24 4919920.39 735.44
1165874.23 4919920.57 735.54
1165874.27 4919920.77 735.50
1165874.21 4919921.11 735.94
1165875.66 4919929.53 734.26
1165875.30 4919929.50 735.84
1165875.35 4919929.71 735.73
1165875.65 4919929.89 734.49
1165875.37 4919929.90 735.73
1165875.68 4919930.08 734.51
1165875.42 4919930.11 735.69
1165875.73 4919930.47 734.51
1165875.75 4919930.67 734.50
1165875.79 4919930.87 734.49
1165875.80 4919931.07 734.50
1165875.83 4919931.26 734.51
1165876.03 4919931.39 734.53
1165876.01 4919931.20 734.50
1165875.98 4919931.00 734.52
1165875.96 4919930.80 734.51
1165875.93 4919930.61 734.52
1165875.91 4919930.41 734.52
1165875.49 4919929.98 736.10
1165875.44 4919929.77 736.21
1165875.86 4919930.02 734.52
1165875.83 4919929.82 734.52
1165875.37 4919929.37 736.27
1165875.81 4919929.63 734.51
1165874.33 4919921.37 736.44
1165874.37 4919921.20 736.18
1165874.39 4919921.03 735.99
1165874.35 4919920.65 735.96
1165874.36 4919920.47 735.82
1165874.45 4919920.33 735.34
1165874.75 4919920.35 735.67
1165874.51 4919920.59 736.86
1165874.60 4919921.55 737.00
1165874.59 4919921.72 737.14
1165874.56 4919921.89 737.38
1165875.43 4919928.67 737.33
1165875.53 4919929.44 737.35
1165875.77 4919929.59 736.38
1165875.57 4919929.65 737.28
1165875.96 4919930.06 735.83
1165875.62 4919929.51 737.72
1165875.50 4919928.53 737.72
1165875.42 4919928.31 737.93
1165874.65 4919922.12 737.84
1165874.69 4919921.95 737.60
1165874.70 4919921.77 737.46
1165874.58 4919920.81 737.46
1165874.59 4919920.64 737.29
1165874.79 4919920.55 736.37
1165874.88 4919920.41 735.95
1165874.87 4919920.22 735.85
1165875.16 4919920.32 736.39
1165875.16 4919920.50 736.52
1165874.83 4919920.69 738.09
1165874.75 4919920.84 738.53
1165874.73 4919921.01 738.66
1165874.99 4919921.68 737.93
1165874.93 4919922.37 738.60
1165874.91 4919922.54 738.73
1165874.88 4919922.70 738.99
1165875.59 4919927.93 738.83
1165875.92 4919928.84 737.89
1165875.72 4919928.90 738.83
1165875.70 4919929.07 738.99
1165875.78 4919929.48 738.87
1165875.87 4919929.37 739.44
1165875.85 4919929.19 739.38
1165875.82 4919928.99 739.40
1165875.80 4919928.80 739.39
1165876.17 4919929.02 737.87
1165875.77 4919928.60 739.40
1165875.75 4919928.41 739.41
1165875.72 4919928.22 739.40
1165875.70 4919928.02 739.41
1165875.66 4919927.82 739.46
1165875.64 4919927.63 739.44
1165875.60 4919927.43 739.49
1165875.02 4919922.99 739.54
1165875.06 4919922.83 739.32
1165875.06 4919922.65 739.20
1165875.20 4919921.46 737.91
1165874.85 4919920.93 739.17
1165875.11 4919920.70 737.88
1165875.34 4919920.44 736.72
1165875.33 4919920.25 736.66
1165875.62 4919920.38 737.19
1165875.62 4919920.56 737.32
1165875.50 4919920.69 737.89
1165875.19 4919920.88 739.43
1165875.54 4919921.06 737.93
1165875.05 4919921.00 740.08
1165875.02 4919921.16 740.31
1165875.05 4919921.71 740.51
1165875.12 4919921.92 740.31
1165875.39 4919922.42 739.42
1165875.30 4919923.26 740.30
1165875.28 4919923.44 740.43
1165875.26 4919923.60 740.66
1165875.70 4919926.86 740.57
1165876.11 4919928.00 739.42
1165875.94 4919928.60 740.52
1165875.93 4919928.78 740.65
1165875.93 4919928.95 740.79
1165876.64 4919929.37 737.90
1165875.99 4919929.17 740.60
1165876.10 4919929.24 741.19
1165876.11 4919928.89 740.95
1165876.08 4919928.69 740.95
1165876.06 4919928.50 740.95
1165876.03 4919928.32 740.95
1165876.01 4919928.12 740.95
1165875.98 4919927.92 740.94
1165875.96 4919927.73 740.95
1165875.92 4919927.53 740.99
1165875.86 4919927.32 741.15
1165875.82 4919927.12 741.20
1165876.02 4919927.23 740.38
1165875.86 4919926.96 740.97
1165875.83 4919926.77 740.96
1165875.77 4919926.55 741.15
1165875.65 4919926.31 741.49
1165875.38 4919924.02 741.43
1165875.43 4919923.68 741.00
1165875.36 4919923.29 741.08
1165875.36 4919923.12 740.96
1165875.35 4919922.93 740.94
1165875.32 4919922.74 740.93
1165875.30 4919922.55 740.94
1165875.27 4919922.36 740.93
1165875.25 4919922.16 740.93
1165875.22 4919921.97 740.93
1165875.60 4919922.16 739.41
1165875.20 4919921.78 740.92
1165875.18 4919921.59 740.93
1165875.15 4919921.40 740.92
1165875.11 4919921.20 741.00
1165875.16 4919921.04 740.69
1165875.42 4919920.81 739.42
1165875.75 4919920.80 737.94
1165875.73 4919920.60 737.89
1165875.81 4919920.47 737.50
1165875.83 4919920.89 739.41
1165875.56 4919920.92 740.65
1165875.51 4919921.08 740.93
1165875.34 4919921.17 741.74
1165875.30 4919921.32 742.05
1165875.25 4919921.48 742.32
1165875.93 4919921.83 739.51
1165875.31 4919921.69 742.19
1165875.93 4919922.00 739.64
1165875.36 4919921.89 742.08
1165875.77 4919922.99 740.92
1165875.67 4919924.19 742.02
1165875.66 4919924.36 742.19
1165875.90 4919926.08 742.12
1165876.31 4919927.20 740.94
1165875.98 4919927.36 742.51
1165876.79 4919928.36 739.50
1165876.84 4919928.58 739.41
1165876.17 4919928.53 742.36
1165876.19 4919928.73 742.35
1165876.19 4919928.90 742.48
1165876.41 4919928.98 742.74
1165876.44 4919928.65 742.39
1165876.25 4919928.35 743.08
1165877.14 4919928.88 739.44
1165877.03 4919928.47 739.66
1165876.14 4919927.77 743.22
1165876.17 4919927.60 743.00
1165876.27 4919927.31 742.38
1165876.62 4919927.52 740.94
1165876.39 4919926.85 741.58
1165876.34 4919926.64 741.67
1165876.29 4919926.44 741.79
1165875.99 4919926.08 742.92
1165876.02 4919925.92 742.69
1165875.96 4919925.71 742.88
1165876.05 4919925.58 742.38
1165875.79 4919924.55 742.94
1165875.84 4919924.41 742.62
1165875.75 4919924.19 742.87
1165875.96 4919923.77 741.76
1165875.95 4919923.58 741.68
1165875.73 4919923.11 742.38
1165875.71 4919922.92 742.38
1165875.55 4919922.66 742.91
1165875.63 4919922.34 742.39
1165875.42 4919922.06 743.16
1165875.60 4919922.15 742.41
1165875.42 4919921.88 743.03
1165875.44 4919921.71 742.89
1165875.42 4919921.53 742.84
1165875.42 4919921.35 742.77
1165875.45 4919921.19 742.51
1165876.18 4919921.38 739.41
1165875.79 4919921.00 740.93
1165876.10 4919920.80 739.40
1165876.30 4919920.54 738.40
1165876.54 4919920.60 738.83
1165876.41 4919920.72 739.42
1165876.46 4919921.10 739.43
1165876.12 4919921.11 740.95
1165875.86 4919921.15 742.14
1165876.42 4919921.44 739.81
1165875.72 4919921.26 742.83
1165875.63 4919921.38 743.31
1165875.57 4919921.53 743.63
1165875.71 4919922.49 743.60
1165876.27 4919922.78 741.25
1165875.70 4919922.66 743.73
1165875.69 4919922.83 743.86
1165875.67 4919923.00 744.02
1165875.87 4919923.81 743.61
1165876.30 4919924.93 742.38
1165875.94 4919924.90 743.99
1165876.33 4919925.12 742.35
1165876.36 4919925.32 742.36
1165876.02 4919925.29 743.85
1165876.48 4919926.26 742.36
1165876.22 4919926.47 743.65
1165876.20 4919926.63 743.82
1165876.27 4919927.38 743.95
1165877.01 4919927.81 740.95
1165877.34 4919928.54 739.87
1165876.42 4919928.16 743.77
1165876.74 4919928.36 742.41
1165876.40 4919928.33 743.91
1165876.41 4919928.51 743.99
1165877.52 4919929.18 739.42
1165876.43 4919928.70 743.98
1165876.52 4919928.59 744.63
1165876.55 4919928.43 744.39
1165876.44 4919928.18 744.74
1165876.51 4919928.06 744.33
1165876.49 4919927.88 744.30
1165876.44 4919927.49 744.30
1165876.37 4919926.92 744.31
1165876.34 4919926.73 744.32
1165876.32 4919926.54 744.32
1165876.29 4919926.35 744.31
1165876.28 4919926.16 744.31
1165876.24 4919925.98 744.32
1165876.23 4919925.78 744.31
1165876.20 4919925.59 744.31
1165876.17 4919925.39 744.36
1165876.12 4919925.19 744.42
1165876.10 4919925.00 744.41
1165876.03 4919924.79 744.59
1165876.07 4919924.64 744.33
1165876.05 4919924.45 744.31
1165876.02 4919924.26 744.31
1165876.00 4919924.07 744.31
1165875.97 4919923.88 744.31
1165875.92 4919923.50 744.30
1165875.90 4919923.31 744.31
1165875.88 4919923.12 744.31
1165875.86 4919922.93 744.29
1165875.83 4919922.75 744.29
1165875.81 4919922.56 744.28
1165875.78 4919922.37 744.28
1165875.77 4919922.18 744.28
1165875.70 4919921.80 744.31
1165876.51 4919922.22 740.99
1165875.67 4919921.59 744.36
1165875.74 4919921.47 743.96
1165876.05 4919921.26 742.47
1165876.36 4919921.07 740.94
1165876.66 4919920.69 739.38
1165876.70 4919920.53 739.15
1165876.92 4919920.70 739.60
1165876.65 4919920.93 740.94
1165876.50 4919921.01 741.70
1165876.87 4919921.21 740.13
1165876.17 4919921.21 743.24
1165876.40 4919921.32 742.32
1165876.75 4919921.68 740.93
1165875.91 4919921.43 744.54
1165875.89 4919921.59 744.72
1165875.81 4919921.73 745.18
1165875.94 4919921.97 744.74
1165875.94 4919922.14 744.85
1165875.93 4919922.32 744.96
1165875.93 4919922.49 745.08
1165875.93 4919922.67 745.18
1165876.19 4919923.16 744.31
1165876.66 4919923.41 742.37
1165876.21 4919923.34 744.35
1165876.24 4919923.54 744.29
1165876.72 4919923.79 742.36
1165876.73 4919923.99 742.38
1165876.01 4919923.77 745.47
1165876.07 4919923.97 745.30
1165876.37 4919924.49 744.30
1165876.52 4919925.62 744.29
1165876.55 4919925.81 744.31
1165876.37 4919926.24 745.30
1165877.10 4919926.66 742.36
1165876.37 4919926.42 745.42
1165876.65 4919926.58 744.31
1165876.69 4919926.95 744.31
1165876.40 4919926.95 745.65
1165876.50 4919927.37 745.41
1165877.23 4919927.80 742.40
1165877.53 4919927.98 741.16
1165877.61 4919928.20 740.94
1165876.85 4919928.10 744.30
1165877.84 4919928.69 740.24
1165876.60 4919928.30 745.49
1165877.71 4919928.97 740.95
1165876.62 4919928.49 745.52
1165877.16 4919928.81 743.33
1165876.89 4919928.51 745.68
1165876.71 4919928.22 746.34
1165878.07 4919928.69 740.55
1165877.11 4919927.94 744.35
1165877.94 4919928.43 740.94
1165876.62 4919927.30 746.17
1165876.62 4919927.13 746.05
1165876.64 4919926.96 745.92
1165877.49 4919927.46 742.40
1165877.00 4919927.00 744.32
1165877.45 4919927.09 742.36
1165877.43 4919926.90 742.34
1165876.47 4919926.15 746.21
1165876.40 4919925.94 746.37
1165876.91 4919926.23 744.31
1165876.34 4919925.74 746.54
1165876.88 4919926.05 744.29
1165876.85 4919925.86 744.29
1165876.83 4919925.67 744.30
1165876.80 4919925.48 744.30
1165876.78 4919925.29 744.30
1165876.75 4919925.10 744.30
1165876.73 4919924.91 744.30
1165876.70 4919924.73 744.30
1165876.68 4919924.53 744.29
1165876.19 4919923.91 746.11
1165876.63 4919924.15 744.30
1165876.20 4919923.74 746.00
1165876.20 4919923.38 745.78
1165876.18 4919923.20 745.74
1165876.07 4919922.97 746.13
1165875.94 4919922.54 746.45
1165876.92 4919923.08 742.37
1165876.90 4919922.89 742.36
1165876.85 4919922.51 742.36
1165875.93 4919921.84 746.05
1165875.98 4919921.69 745.78
1165876.17 4919921.45 744.75
1165877.01 4919921.89 741.24
1165876.43 4919921.22 743.46
1165877.03 4919921.54 740.96
1165876.67 4919921.18 742.39
1165876.86 4919920.91 741.40
1165877.15 4919920.70 739.96
1165877.38 4919920.61 740.31
1165877.37 4919920.79 740.46
1165877.23 4919920.88 741.15
1165877.30 4919921.10 740.94
1165876.96 4919921.11 742.47
1165877.01 4919921.31 742.38
1165876.72 4919921.33 743.70
1165877.03 4919921.50 742.38
1165877.28 4919921.63 741.36
1165876.46 4919921.55 744.96
1165877.09 4919921.88 742.37
1165876.32 4919921.65 745.66
1165877.11 4919922.06 742.38
1165876.07 4919921.88 746.90
1165876.07 4919922.05 747.01
1165877.20 4919922.64 742.35
1165877.20 4919922.83 742.41
1165876.77 4919922.76 744.32
1165876.18 4919922.80 746.96
1165876.83 4919923.16 744.29
1165876.23 4919923.17 746.99
1165876.31 4919923.73 746.99
1165876.36 4919924.12 746.97
1165876.38 4919924.30 746.97
1165876.44 4919924.50 746.85
1165876.46 4919924.69 746.85
1165876.41 4919924.84 747.16
1165876.46 4919925.03 747.09
1165876.49 4919925.22 747.03
1165876.54 4919925.42 746.96
1165876.56 4919925.60 746.97
1165876.59 4919925.79 746.97
1165876.61 4919925.99 746.97
1165876.64 4919926.18 746.97
1165876.66 4919926.37 746.97
1165877.30 4919926.74 744.30
1165876.68 4919926.55 746.99
1165877.79 4919927.21 742.39
1165876.74 4919926.93 746.97
1165876.76 4919927.12 746.96
1165877.41 4919927.51 744.29
1165876.81 4919927.50 746.97
1165876.77 4919927.82 747.37
1165876.88 4919928.23 747.13
1165876.98 4919928.22 747.77
1165877.24 4919928.38 746.70
1165876.92 4919928.02 747.90
1165877.11 4919927.77 746.94
1165878.37 4919928.37 741.61
1165876.83 4919927.26 747.87
1165876.78 4919927.05 748.00
1165877.62 4919927.21 744.30
1165878.10 4919927.50 742.35
1165876.77 4919926.53 747.73
1165878.06 4919927.30 742.38
1165876.69 4919925.96 747.73
1165876.69 4919925.79 747.62
1165876.70 4919925.63 747.49
1165876.69 4919925.46 747.38
1165876.78 4919925.33 746.95
1165876.70 4919924.76 746.95
1165876.48 4919924.28 747.68
1165876.42 4919924.07 747.82
1165876.27 4919922.77 747.73
1165876.27 4919922.60 747.62
1165876.27 4919922.42 747.51
1165876.18 4919922.03 747.68
1165876.25 4919921.89 747.29
1165876.59 4919921.72 745.67
1165876.68 4919921.41 745.12
1165876.86 4919921.51 744.30
1165876.92 4919921.19 743.88
1165877.48 4919921.48 741.56
1165877.25 4919921.18 742.38
1165877.51 4919920.79 740.97
1165877.57 4919920.63 740.67
1165877.27 4919921.31 744.17
1165877.27 4919921.48 744.31
1165877.03 4919921.54 745.37
1165877.76 4919921.93 742.34
1165876.85 4919921.79 746.36
1165876.61 4919921.84 747.47
1165877.39 4919922.44 744.30
1165876.39 4919922.07 748.57
1165876.38 4919922.24 748.69
1165876.38 4919922.58 748.94
1165876.44 4919922.79 748.79
1165876.50 4919923.00 748.64
1165876.63 4919923.59 748.41
1165876.63 4919923.75 748.54
1165876.62 4919923.92 748.64
1165876.63 4919924.10 748.73
1165877.05 4919924.34 746.95
1165877.23 4919925.66 746.95
1165876.74 4919925.55 749.10
1165876.80 4919925.75 748.96
1165876.85 4919925.95 748.83
1165878.49 4919927.45 742.38
1165878.05 4919927.36 744.32
1165877.04 4919927.11 748.65
1165877.04 4919927.28 748.78
1165877.05 4919927.45 748.88
1165877.03 4919927.78 749.15
1165877.74 4919928.40 746.29
1165877.17 4919927.77 749.77
1165877.11 4919927.22 749.71
1165877.05 4919927.02 749.88
1165878.87 4919928.12 742.37
1165877.71 4919927.06 746.95
1165877.69 4919926.88 746.93
1165878.79 4919927.53 742.40
1165877.55 4919925.93 746.94
1165876.87 4919925.19 749.58
1165876.87 4919925.01 749.48
1165876.82 4919924.82 749.57
1165876.76 4919924.60 749.76
1165876.68 4919924.39 749.94
1165877.31 4919924.05 746.93
1165876.55 4919922.76 749.58
1165876.55 4919922.60 749.48
1165876.54 4919922.42 749.41
1165876.50 4919922.22 749.47
1165876.53 4919922.07 749.24
1165877.01 4919921.80 746.97
1165877.19 4919921.72 746.07
1165877.27 4919921.41 745.55
1165877.54 4919921.38 744.31
1165878.07 4919920.77 741.55
1165878.39 4919920.78 742.11
1165878.36 4919920.94 742.37
1165878.25 4919921.06 742.94
1165877.97 4919921.27 744.30
1165877.66 4919921.45 745.84
1165878.50 4919921.90 742.36
1165878.05 4919921.83 744.31
1165878.07 4919922.02 744.31
1165877.23 4919921.74 747.94
1165877.47 4919921.87 746.95
1165877.09 4919922.02 748.71
1165876.92 4919922.10 749.55
1165876.71 4919922.33 750.62
1165876.68 4919922.48 750.86
1165876.67 4919922.81 751.11
1165876.79 4919923.23 750.80
1165876.94 4919923.65 750.41
1165876.94 4919923.82 750.52
1165876.93 4919923.99 750.65
1165876.93 4919924.16 750.76
1165876.93 4919924.34 750.86
1165877.01 4919925.40 751.17
1165877.07 4919925.61 751.01
1165877.13 4919925.82 750.87
1165878.08 4919926.38 746.94
1165878.11 4919926.57 746.94
1165877.28 4919926.42 750.56
1165877.28 4919926.59 750.67
1165879.29 4919927.80 742.37
1165877.28 4919926.76 750.77
1165877.27 4919927.09 750.99
1165878.93 4919928.28 744.31
1165879.37 4919928.55 742.45
1165877.31 4919927.47 751.06
1165878.30 4919928.07 746.96
1165877.56 4919927.65 751.27
1165877.42 4919927.39 751.78
1165878.57 4919927.92 746.95
1165878.77 4919928.05 746.07
1165879.21 4919928.31 744.30
1165877.37 4919927.02 751.78
1165879.65 4919928.41 742.36
1165877.29 4919926.80 751.97
1165879.16 4919927.93 744.30
1165879.57 4919927.83 742.38
1165878.39 4919926.59 746.94
1165878.36 4919926.41 746.95
1165877.15 4919925.18 751.61
1165877.16 4919925.01 751.50
1165877.12 4919924.82 751.56
1165877.04 4919924.59 751.80
1165876.96 4919924.39 751.99
1165878.03 4919923.96 746.95
1165876.85 4919922.78 751.54
1165877.96 4919923.40 746.95
1165876.81 4919922.58 751.62
1165876.83 4919922.43 751.40
1165877.16 4919922.08 749.74
1165877.44 4919922.07 748.48
1165877.47 4919921.91 748.22
1165877.48 4919921.74 748.11
1165877.72 4919921.70 746.99
1165878.34 4919921.85 744.31
1165877.91 4919921.45 746.01
1165878.75 4919921.72 742.38
1165878.57 4919920.92 742.70
1165878.78 4919920.94 743.35
1165879.04 4919921.26 742.38
1165878.60 4919921.20 744.31
1165879.08 4919921.45 742.35
1165878.48 4919921.30 744.95
1165878.66 4919921.58 744.31
1165878.23 4919921.52 746.23
1165878.71 4919921.95 744.34
1165878.10 4919921.81 746.95
1165877.79 4919921.81 748.35
1165877.48 4919922.15 749.99
1165877.14 4919922.31 751.56
1165877.02 4919922.41 752.21
1165876.99 4919922.57 752.46
1165876.98 4919922.74 752.56
1165877.05 4919923.45 752.70
1165877.13 4919923.67 752.48
1165877.15 4919923.86 752.53
1165877.28 4919925.63 752.99
1165877.35 4919925.84 752.82
1165877.46 4919926.08 752.43
1165877.47 4919926.25 752.52
1165877.46 4919926.41 752.64
1165879.54 4919928.01 744.31
1165879.56 4919928.20 744.31
1165880.02 4919928.50 742.37
1165877.55 4919927.31 752.82
1165878.00 4919927.59 750.93
1165877.66 4919927.21 753.59
1165877.61 4919927.01 753.70
1165878.45 4919927.52 750.25
1165877.59 4919926.83 753.66
1165879.24 4919927.83 746.89
1165879.86 4919928.22 744.30
1165877.53 4919926.63 753.84
1165879.12 4919927.08 746.94
1165879.02 4919926.33 746.95
1165877.38 4919925.01 753.53
1165877.32 4919924.81 753.66
1165877.38 4919924.67 753.35
1165877.39 4919924.51 753.17
1165877.10 4919922.81 753.46
1165877.11 4919922.65 753.32
1165878.60 4919923.13 746.91
1165877.40 4919922.30 751.84
1165877.64 4919922.26 750.71
1165877.74 4919922.14 750.20
1165878.38 4919921.62 746.96
1165878.93 4919921.40 744.39
1165878.92 4919921.21 744.32
1165878.98 4919921.07 743.96
1165879.36 4919921.27 742.35
1165879.30 4919920.88 742.38
1165879.69 4919920.81 742.41
1165879.72 4919921.02 742.36
1165879.40 4919921.02 743.79
1165879.29 4919921.13 744.38
1165878.81 4919921.40 746.69
1165878.79 4919921.55 746.91
1165878.66 4919921.67 747.52
1165878.41 4919921.87 748.80
1165878.85 4919922.12 746.95
1165878.06 4919922.04 750.47
1165878.10 4919922.23 750.40
1165877.73 4919922.37 752.13
1165877.59 4919922.62 752.98
1165877.27 4919922.79 754.49
1165877.26 4919922.95 754.66
1165877.29 4919923.47 754.83
1165877.36 4919923.68 754.65
1165877.44 4919923.89 754.43
1165877.44 4919924.06 754.53
1165877.44 4919924.22 754.66
1165879.42 4919926.25 746.96
1165877.56 4919925.48 754.89
1165877.62 4919925.69 754.73
1165877.72 4919925.91 754.42
1165880.64 4919927.68 742.34
1165877.71 4919926.08 754.54
1165877.71 4919926.24 754.67
1165877.71 4919926.41 754.77
1165879.60 4919927.57 746.96
1165880.23 4919928.13 744.45
1165877.77 4919926.96 754.82
1165877.89 4919926.92 755.53
1165877.86 4919926.74 755.55
1165878.62 4919927.21 752.41
1165877.81 4919926.54 755.68
1165879.41 4919927.52 749.05
1165879.91 4919927.83 746.97
1165877.73 4919926.32 755.86
1165881.10 4919928.38 741.95
1165880.50 4919927.85 744.31
1165880.98 4919928.13 742.37
1165880.90 4919927.56 742.37
1165877.66 4919925.10 755.46
1165879.71 4919926.32 746.95
1165877.66 4919924.93 755.37
1165877.67 4919924.59 755.13
1165877.40 4919923.09 755.42
1165877.39 4919922.91 755.36
1165877.40 4919922.75 755.19
1165877.68 4919922.58 753.82
1165877.94 4919922.54 752.66
1165877.98 4919922.40 752.34
1165879.29 4919923.13 746.94
1165878.32 4919922.07 750.64
1165878.64 4919921.73 748.98
1165879.10 4919921.80 746.95
1165879.05 4919921.60 747.07
1165879.07 4919921.44 746.87
1165879.63 4919921.39 744.31
1165880.10 4919921.64 742.36
1165879.58 4919921.19 744.43
1165879.94 4919920.84 742.61
1165880.00 4919920.70 742.24
1165880.55 4919920.44 741.09
1165880.48 4919920.58 741.47
1165880.32 4919920.86 742.37
1165880.19 4919920.97 743.00
1165880.38 4919921.23 742.36
1165879.81 4919921.11 744.84
1165879.95 4919921.36 744.34
1165879.99 4919921.55 744.33
1165880.45 4919921.80 742.37
1165878.95 4919921.87 749.18
1165878.83 4919921.96 749.79
1165878.27 4919922.34 752.58
1165878.34 4919922.55 752.35
1165877.68 4919922.86 755.55
1165877.58 4919922.95 756.09
1165877.54 4919923.10 756.35
1165877.68 4919923.53 755.93
1165877.57 4919923.64 756.52
1165877.67 4919924.03 756.30
1165877.68 4919924.20 756.40
1165880.05 4919926.28 746.95
1165877.71 4919925.21 756.88
1165881.22 4919927.32 742.35
1165877.79 4919925.43 756.68
1165877.86 4919925.65 756.46
1165881.27 4919927.71 742.35
1165877.94 4919925.86 756.24
1165877.93 4919926.02 756.37
1165877.93 4919926.19 756.50
1165880.24 4919927.60 746.95
1165877.99 4919926.72 756.57
1165878.24 4919926.82 756.87
1165878.08 4919926.54 757.46
1165877.96 4919925.97 757.64
1165880.51 4919927.36 746.95
1165882.03 4919928.29 740.66
1165880.50 4919927.17 746.92
1165881.12 4919927.56 744.33
1165877.92 4919925.11 757.31
1165877.92 4919924.94 757.19
1165877.91 4919924.78 757.09
1165880.36 4919926.24 746.93
1165877.73 4919924.33 757.65
1165877.71 4919923.48 757.25
1165877.69 4919923.31 757.22
1165877.66 4919923.13 757.21
1165877.69 4919922.97 757.04
1165877.93 4919922.77 755.79
1165878.24 4919922.60 754.32
1165878.54 4919922.44 752.84
1165878.72 4919922.36 752.00
1165878.88 4919922.11 751.11
1165879.22 4919921.78 749.39
1165879.78 4919921.92 746.93
1165879.63 4919921.49 747.34
1165879.78 4919921.40 746.62
1165880.33 4919921.69 744.31
1165880.31 4919921.51 744.31
1165880.75 4919921.56 742.36
1165880.07 4919921.03 745.06
1165880.25 4919921.13 744.32
1165880.64 4919920.80 742.39
1165880.92 4919920.59 740.94
1165880.88 4919920.40 741.02
1165881.03 4919920.30 740.28
1165881.06 4919920.14 740.07
1165881.57 4919920.07 739.28
1165881.19 4919920.41 741.21
1165880.95 4919920.64 742.42
1165881.31 4919920.82 740.93
1165880.70 4919920.86 743.74
1165881.25 4919921.15 741.40
1165880.59 4919920.98 744.27
1165880.37 4919921.04 745.30
1165880.19 4919921.28 746.30
1165880.66 4919921.53 744.33
1165881.12 4919921.79 742.36
1165880.19 4919921.46 746.40
1165880.68 4919921.73 744.31
1165879.94 4919921.49 747.55
1165879.52 4919921.78 749.62
1165879.19 4919922.11 751.35
1165880.29 4919923.07 746.95
1165878.85 4919922.44 753.08
1165878.54 4919922.60 754.58
1165878.23 4919922.76 756.06
1165878.00 4919922.96 757.29
1165878.18 4919923.06 756.54
1165877.97 4919923.11 757.50
1165877.85 4919923.20 758.10
1165877.83 4919923.36 758.29
1165877.82 4919923.53 758.40
1165878.01 4919924.13 757.98
1165878.00 4919924.29 758.13
1165877.99 4919924.46 758.25
1165877.98 4919924.61 758.41
1165881.84 4919926.92 742.38
1165878.00 4919924.79 758.42
1165881.86 4919927.12 742.37
1165877.99 4919924.95 758.57
1165884.14 4919928.66 733.06
1165878.04 4919925.15 758.45
1165880.82 4919926.83 746.93
1165882.28 4919927.89 740.94
1165878.23 4919925.77 757.99
1165881.52 4919927.78 744.32
1165882.71 4919928.50 739.43
1165878.21 4919926.09 758.26
1165878.21 4919926.25 758.40
1165879.12 4919926.81 754.64
1165878.18 4919926.40 758.59
1165878.30 4919926.41 759.51
1165878.27 4919926.22 759.53
1165878.50 4919926.36 758.59
1165878.74 4919926.51 757.57
1165878.47 4919926.18 758.60
1165879.36 4919926.73 754.93
1165879.74 4919926.97 753.36
1165878.20 4919925.67 759.49
1165881.86 4919927.92 744.33
1165882.33 4919928.21 742.40
1165878.15 4919925.47 759.64
1165878.05 4919925.25 759.90
1165878.24 4919925.21 759.05
1165884.45 4919928.98 733.29
1165878.25 4919925.04 758.92
1165882.22 4919927.45 742.39
1165884.44 4919928.79 733.20
1165881.10 4919926.59 746.96
1165884.38 4919928.57 733.34
1165881.09 4919926.42 746.93
1165882.17 4919927.07 742.39
1165884.38 4919928.39 733.21
1165881.05 4919926.22 746.96
1165882.16 4919926.88 742.37
1165878.03 4919924.24 759.43
1165882.13 4919926.70 742.37
1165877.97 4919924.05 759.53
1165877.91 4919923.84 759.70
1165878.01 4919923.74 759.18
1165877.99 4919923.56 759.13
1165877.90 4919923.34 759.43
1165877.99 4919923.23 758.93
1165878.28 4919923.05 757.57
1165878.53 4919922.87 756.30
1165878.82 4919922.70 754.86
1165878.81 4919922.51 754.81
1165879.03 4919922.64 753.88
1165879.04 4919922.48 753.72
1165879.12 4919922.35 753.32
1165880.61 4919923.02 746.94
1165879.53 4919922.24 751.38
1165879.46 4919922.03 751.59
1165880.57 4919922.65 746.93
1165880.54 4919922.46 746.95
1165879.82 4919921.89 749.86
1165880.01 4919921.82 748.96
1165880.21 4919921.42 747.78
1165880.42 4919921.52 746.91
1165881.04 4919921.86 744.30
1165881.51 4919922.11 742.35
1165881.48 4919921.93 742.37
1165880.58 4919921.27 746.05
1165880.67 4919921.14 745.54
1165880.94 4919921.11 744.31
1165880.92 4919920.92 744.28
1165881.69 4919921.15 740.93
1165881.27 4919920.58 742.44
1165881.58 4919920.38 740.95
1165881.84 4919920.16 739.67
1165882.08 4919919.93 738.39
1165882.13 4919919.77 738.09
1165882.75 4919919.55 736.93
1165882.70 4919919.71 737.26
1165882.56 4919919.81 737.97
1165882.60 4919920.01 737.91
1165882.15 4919920.13 740.03
1165881.98 4919920.41 740.95
1165882.37 4919920.78 739.42
1165881.35 4919920.78 744.03
1165881.32 4919920.93 744.30
1165882.13 4919921.54 740.97
1165881.01 4919921.12 745.79
1165881.47 4919922.06 744.32
1165881.99 4919922.69 742.35
1165880.17 4919921.87 750.10
1165882.02 4919922.90 742.34
1165880.01 4919922.11 750.96
1165879.82 4919922.18 751.88
1165881.00 4919922.84 746.94
1165881.03 4919923.03 746.92
1165879.46 4919922.32 753.62
1165881.06 4919923.22 746.92
1165879.51 4919922.52 753.48
1165881.08 4919923.40 746.92
1165881.11 4919923.59 746.92
1165879.07 4919922.77 755.67
1165881.16 4919923.97 746.93
1165881.21 4919924.35 746.93
1165878.62 4919923.19 757.92
1165878.34 4919923.18 759.20
1165878.11 4919923.22 760.28
1165881.31 4919925.10 746.93
1165878.08 4919923.36 760.53
1165877.96 4919923.46 761.11
1165877.92 4919923.76 761.49
1165878.00 4919923.98 761.24
1165877.96 4919924.28 761.64
1165882.12 4919926.78 744.33
1165882.59 4919927.07 742.37
1165884.82 4919928.42 733.09
1165877.98 4919924.46 761.63
1165882.16 4919926.99 744.30
1165878.01 4919924.64 761.63
1165884.54 4919928.60 734.51
1165878.03 4919924.82 761.64
1165884.56 4919928.80 734.53
1165878.06 4919925.00 761.64
1165878.33 4919925.16 760.55
1165884.59 4919928.99 734.54
1165878.09 4919925.18 761.61
1165878.11 4919925.36 761.62
1165878.14 4919925.53 761.63
1165878.16 4919925.71 761.64
1165879.71 4919926.67 755.21
1165878.19 4919925.89 761.64
1165878.21 4919926.07 761.64
1165878.24 4919926.26 761.64
1165878.25 4919926.43 761.64
1165878.29 4919926.61 761.63
1165878.79 4919927.85 761.64
1165878.76 4919927.66 761.65
1165878.74 4919927.49 761.65
1165878.71 4919927.30 761.67
1165878.67 4919927.11 761.74
1165878.51 4919926.84 762.27
1165878.52 4919926.69 762.16
1165878.29 4919926.23 762.90
1165878.34 4919926.09 762.58
1165878.57 4919926.23 761.66
1165878.54 4919926.04 761.64
1165878.31 4919925.58 762.39
1165878.17 4919925.16 762.76
1165878.11 4919924.96 762.94
1165878.34 4919925.10 762.01
1165884.15 4919928.67 737.91
1165884.95 4919929.15 734.60
1165879.13 4919925.43 758.60
1165884.49 4919928.70 736.40
1165884.92 4919928.96 734.60
1165879.10 4919925.24 758.61
1165884.91 4919928.77 734.53
1165883.00 4919927.43 742.38
1165884.89 4919928.58 734.51
1165878.12 4919924.15 762.37
1165885.21 4919928.41 732.96
1165878.07 4919923.96 762.48
1165878.02 4919923.76 762.61
1165878.12 4919923.66 762.07
1165878.05 4919923.45 762.29
1165878.12 4919923.32 761.89
1165878.15 4919923.18 761.65
1165878.04 4919922.95 762.02
1165878.62 4919923.29 759.57
1165878.08 4919922.81 761.71
1165878.63 4919923.12 759.48
1165878.85 4919923.26 758.50
1165878.08 4919922.64 761.66
1165878.05 4919922.47 761.64
1165878.03 4919922.28 761.64
1165879.50 4919922.79 755.31
1165879.45 4919922.60 755.41
1165879.77 4919922.44 753.89
1165879.94 4919922.37 753.06
1165880.11 4919922.13 752.12
1165882.46 4919923.44 742.33
1165880.43 4919921.96 750.60
1165880.47 4919921.81 750.31
1165881.84 4919922.22 744.31
1165880.88 4919921.52 748.26
1165881.14 4919921.31 746.97
1165882.51 4919922.05 741.24
1165882.54 4919921.90 740.98
1165881.31 4919921.06 746.03
1165881.67 4919920.90 744.30
1165882.76 4919921.30 739.63
1165881.84 4919920.65 743.34
1165882.77 4919921.13 739.47
1165882.05 4919920.57 742.39
1165882.15 4919920.46 741.87
1165882.34 4919920.38 740.94
1165883.01 4919920.37 737.91
1165882.78 4919919.89 738.63
1165882.94 4919919.78 737.89
1165883.20 4919919.57 736.52
1165883.30 4919919.43 736.01
1165883.66 4919919.61 734.50
1165883.32 4919919.26 735.80
1165883.63 4919919.41 734.53
1165883.60 4919919.23 734.52
1165883.58 4919919.03 734.51
1165883.55 4919918.84 734.52
1165883.53 4919918.65 734.51
1165883.50 4919918.45 734.51
1165883.88 4919918.41 734.52
1165883.91 4919918.59 734.51
1165883.93 4919918.79 734.52
1165883.94 4919918.98 734.61
1165883.94 4919919.16 734.69
1165883.81 4919919.26 735.37
1165883.74 4919919.42 735.81
1165884.04 4919919.57 734.53
1165883.62 4919919.53 736.39
1165883.39 4919919.59 737.48
1165883.33 4919919.74 737.88
1165883.69 4919919.92 736.39
1165882.78 4919920.18 740.65
1165882.73 4919920.32 740.94
1165882.49 4919920.37 742.09
1165882.44 4919920.52 742.40
1165882.27 4919920.60 743.26
1165882.19 4919920.75 743.66
1165882.07 4919920.85 744.31
1165881.79 4919921.06 745.69
1165881.66 4919921.15 746.34
1165883.13 4919921.95 740.15
1165881.54 4919921.26 746.98
1165882.16 4919921.60 744.33
1165883.00 4919922.23 740.94
1165881.22 4919921.44 748.49
1165882.91 4919922.54 741.54
1165882.27 4919922.36 744.32
1165880.82 4919921.73 750.52
1165880.46 4919922.04 752.37
1165882.38 4919923.12 744.30
1165878.27 4919920.98 761.64
1165880.43 4919922.19 752.57
1165878.29 4919921.16 761.65
1165878.31 4919921.34 761.66
1165878.29 4919921.49 761.85
1165878.33 4919921.68 761.78
1165879.99 4919922.62 754.87
1165882.52 4919924.07 744.28
1165882.56 4919924.43 744.33
1165879.51 4919922.84 757.20
1165878.22 4919922.43 762.77
1165879.24 4919923.03 758.49
1165882.65 4919925.01 744.30
1165879.25 4919923.19 758.60
1165878.54 4919922.95 761.64
1165882.71 4919925.39 744.28
1165878.73 4919923.22 760.95
1165878.05 4919922.99 763.88
1165878.47 4919923.23 762.13
1165878.73 4919923.38 761.04
1165878.07 4919923.32 764.02
1165878.11 4919923.50 763.98
1165878.10 4919923.67 764.08
1165878.12 4919923.84 764.12
1165878.14 4919924.02 764.11
1165879.48 4919924.83 758.58
1165878.17 4919924.20 764.11
1165878.20 4919924.37 764.09
1165878.24 4919924.56 764.01
