390.34 38.87 23.26
390.08 38.85 23.26
389.8 38.89 23.54
390.32 38.79 24.21
390.05 38.79 24.3
389.79 38.78 24.32
389.53 38.74 24.23
389.27 38.71 24.19
383.77 38.19 23.85
383.52 38.11 23.57
382.99 38.07 23.58
390.31 38.63 24.8
389.53 38.57 24.84
388.74 38.52 24.89
388.47 38.56 25.12
384.56 38.17 24.76
384.31 38.09 24.51
384.05 38.05 24.46
383.79 38.01 24.35
383.53 37.98 24.34
383.27 37.96 24.34
383.0 37.96 24.41
382.77 37.65 23.2
390.3 38.52 25.63
390.02 38.54 25.83
389.76 38.53 25.84
389.85 38.18 24.36
389.5 38.51 25.84
389.24 38.48 25.83
388.98 38.47 25.85
388.72 38.44 25.84
388.21 38.35 25.61
387.95 38.37 25.8
385.35 38.13 25.64
385.1 38.05 25.36
383.82 37.7 24.34
383.53 37.95 25.47
383.28 37.88 25.26
383.04 37.64 24.35
390.35 38.16 25.36
390.0 38.47 26.8
390.15 37.9 24.35
389.47 38.48 27.0
389.22 38.42 26.85
388.97 38.35 26.64
388.49 38.14 25.88
387.43 38.2 26.51
387.16 38.24 26.75
386.13 38.11 26.56
385.88 38.04 26.35
385.12 37.87 25.9
384.84 37.96 26.37
384.58 37.99 26.56
383.82 37.77 25.9
383.56 37.75 25.89
383.59 37.38 24.34
383.29 37.82 26.27
383.07 37.34 24.33
390.35 37.97 25.83
390.44 37.62 24.34
389.89 38.73 29.2
389.73 38.31 27.45
389.38 38.7 29.26
389.48 38.27 27.4
389.12 38.68 29.25
389.22 38.25 27.41
388.87 38.66 29.22
388.97 38.23 27.39
388.61 38.64 29.22
388.71 38.21 27.4
388.36 38.62 29.22
388.45 38.19 27.39
388.1 38.6 29.23
388.19 38.17 27.4
387.85 38.57 29.21
387.93 38.15 27.39
387.59 38.55 29.2
387.68 38.13 27.41
387.34 38.53 29.2
387.42 38.11 27.39
387.08 38.51 29.19
387.16 38.09 27.4
386.83 38.49 29.19
386.9 38.07 27.39
386.57 38.47 29.21
386.65 38.05 27.4
386.32 38.45 29.18
386.39 38.03 27.41
386.06 38.42 29.17
386.13 38.0 27.37
385.87 37.98 27.37
385.62 37.96 27.37
385.36 37.94 27.36
385.1 37.92 27.37
384.84 37.9 27.35
384.89 37.55 25.87
384.59 37.88 27.37
384.33 37.86 27.37
384.07 37.84 27.38
383.82 37.77 27.17
383.56 37.79 27.31
383.26 38.23 29.26
383.1 37.05 24.38
390.68 38.52 29.3
390.46 37.37 24.55
389.92 38.42 29.16
389.98 38.21 28.23
389.67 38.4 29.14
389.42 38.37 29.11
389.16 38.35 29.11
389.21 38.13 28.17
388.94 38.18 28.46
389.08 37.58 25.91
388.43 38.13 28.42
386.42 37.73 27.4
385.59 38.08 29.14
385.33 38.06 29.15
385.08 38.04 29.15
384.82 38.02 29.15
384.57 38.0 29.16
384.66 37.23 25.88
384.31 37.98 29.15
384.06 37.96 29.15
384.08 37.71 28.09
383.8 37.94 29.16
383.83 37.64 27.88
383.55 37.92 29.18
383.29 37.92 29.23
383.33 37.49 27.41
383.03 37.91 29.27
383.13 36.75 24.37
390.71 38.22 29.36
390.46 38.18 29.27
390.21 38.15 29.21
389.95 38.11 29.14
390.03 37.83 27.92
389.7 38.09 29.11
389.37 37.29 25.89
388.68 38.01 29.13
388.43 37.98 29.09
388.17 37.99 29.22
387.48 37.51 27.43
386.19 37.41 27.42
385.11 37.72 29.07
384.86 37.64 28.85
384.6 37.63 28.86
384.34 37.65 29.06
384.43 36.91 25.9
384.09 37.63 29.05
383.83 37.63 29.14
383.59 37.53 28.79
383.37 37.11 27.1
383.06 37.6 29.24
383.16 36.5 24.59
382.81 37.57 29.23
390.74 37.92 29.33
390.4 37.24 26.59
390.05 37.59 28.16
389.67 38.06 30.28
389.73 37.78 29.1
389.42 38.03 30.22
389.17 37.95 30.0
387.66 37.77 29.71
387.77 37.22 27.39
387.4 37.81 29.97
387.18 37.58 29.07
386.93 37.55 29.06
386.67 37.54 29.07
386.41 37.52 29.08
386.13 37.7 29.96
385.88 37.62 29.68
385.97 37.08 27.39
385.65 37.46 29.1
385.4 37.44 29.09
385.14 37.42 29.09
384.88 37.41 29.11
384.61 37.52 29.7
384.37 37.37 29.12
384.12 37.35 29.12
384.2 36.59 25.88
383.86 37.33 29.13
383.61 37.32 29.16
383.35 37.3 29.16
383.18 36.27 24.9
382.84 37.27 29.22
390.77 37.62 29.34
390.52 37.58 29.26
390.5 36.67 25.43
390.06 37.34 28.37
389.64 37.99 31.25
389.51 37.45 29.01
389.14 37.91 31.11
388.88 37.93 31.28
388.13 37.83 31.08
388.06 36.94 27.38
387.37 37.8 31.23
387.13 37.73 31.0
386.89 37.62 30.63
386.64 37.6 30.62
386.37 37.67 31.01
386.13 37.57 30.66
385.88 37.54 30.62
385.63 37.53 30.64
385.37 37.5 30.62
385.12 37.48 30.64
384.87 37.46 30.64
384.62 37.44 30.62
384.36 37.42 30.62
384.11 37.41 30.68
383.85 37.43 30.84
383.64 36.99 29.03
383.38 36.99 29.14
383.45 36.22 25.87
383.21 36.04 25.2
382.87 36.98 29.25
390.55 37.29 29.26
390.52 36.43 25.69
390.08 37.1 28.63
390.15 36.81 27.4
389.63 37.86 31.98
389.39 37.82 31.89
389.13 37.79 31.87
388.88 37.78 31.88
388.63 37.76 31.9
388.38 37.75 31.96
388.12 37.73 31.96
387.18 37.34 30.63
386.42 37.28 30.61
385.62 37.48 31.7
385.37 37.49 31.85
385.12 37.44 31.7
385.0 36.41 27.4
383.86 37.31 31.59
383.64 36.99 30.32
383.67 36.69 29.05
383.42 36.69 29.13
383.45 36.28 27.38
383.23 35.8 25.45
390.84 37.02 29.32
390.53 36.18 25.92
390.06 37.0 29.51
389.62 37.73 32.71
389.66 37.55 31.98
389.35 37.79 33.07
389.58 36.85 29.03
389.11 37.72 32.86
388.89 36.41 27.41
388.64 36.39 27.4
387.46 37.06 30.64
387.35 36.29 27.42
387.09 36.28 27.46
386.83 36.26 27.44
386.57 36.24 27.45
386.2 36.97 30.66
386.06 36.19 27.43
385.8 36.17 27.44
385.54 36.15 27.43
385.29 36.13 27.42
384.87 37.29 32.47
384.62 37.33 32.69
384.42 36.82 30.63
384.13 37.23 32.44
384.21 36.43 29.06
383.88 37.15 32.19
383.96 36.42 29.09
383.71 36.33 28.82
383.45 36.39 29.15
383.52 35.62 25.87
382.93 36.38 29.24
390.87 36.71 29.29
390.55 35.95 26.22
390.12 36.6 29.09
389.63 37.49 33.03
389.34 37.67 33.84
389.1 37.6 33.65
389.19 36.12 27.4
388.67 36.08 27.4
388.0 36.8 30.64
385.98 36.64 30.64
385.32 35.81 27.39
384.96 36.55 30.62
384.8 35.78 27.4
384.38 37.18 33.45
384.13 37.15 33.38
383.92 36.76 31.84
383.95 36.49 30.67
383.99 36.11 29.08
383.73 36.12 29.18
383.48 36.08 29.13
382.97 36.07 29.23
390.9 36.4 29.27
390.65 36.37 29.24
390.56 35.72 26.52
390.25 35.9 27.39
389.69 37.09 32.6
389.32 37.58 34.77
389.07 37.57 34.81
389.47 35.85 27.4
388.82 37.55 34.82
388.58 37.52 34.75
388.33 37.48 34.65
388.7 35.78 27.38
388.28 36.51 30.62
385.5 36.3 30.62
385.13 37.16 34.4
385.25 36.28 30.63
384.89 37.07 34.11
384.58 35.46 27.41
384.14 37.03 34.17
383.93 36.69 32.81
383.95 36.47 31.88
384.02 35.81 29.08
383.76 35.81 29.17
383.51 35.79 29.13
383.0 35.76 29.21
390.68 36.08 29.24
390.28 35.6 27.39
389.74 36.7 32.18
389.31 37.45 35.46
388.56 37.42 35.6
388.57 36.24 30.63
387.85 37.26 35.18
386.8 36.11 30.67
386.54 36.09 30.68
386.29 36.07 30.67
385.87 37.14 35.33
386.04 36.05 30.66
385.63 37.06 35.06
385.53 36.01 30.66
385.13 37.09 35.35
385.28 35.98 30.65
384.4 36.98 35.15
384.16 36.88 34.79
384.19 36.63 33.72
383.97 36.32 32.48
383.79 35.57 29.38
383.54 35.49 29.14
383.58 35.08 27.4
390.97 35.81 29.28
390.59 35.24 27.04
390.31 35.31 27.4
389.79 36.34 31.91
389.3 37.31 36.16
389.71 35.64 29.01
389.04 37.35 36.41
388.85 35.96 30.63
388.76 35.19 27.41
387.35 37.09 35.91
387.09 37.14 36.2
386.37 37.03 35.98
385.41 34.92 27.4
384.89 36.91 35.97
385.06 35.67 30.66
384.41 36.87 35.95
384.21 36.39 34.0
384.34 35.23 29.06
384.01 35.92 32.07
383.57 35.19 29.13
383.62 34.66 26.89
383.06 35.17 29.24
391.0 35.5 29.29
390.34 35.01 27.45
389.99 35.37 29.05
389.34 36.99 36.09
389.03 37.25 37.3
389.39 35.7 30.64
388.54 37.21 37.31
388.28 37.25 37.53
388.8 34.88 27.39
388.05 37.16 37.26
387.11 36.92 36.55
386.62 36.88 36.54
385.63 36.91 37.0
385.6 35.39 30.62
385.44 34.62 27.41
384.9 36.84 36.96
384.66 36.79 36.81
384.84 35.33 30.6
384.42 36.74 36.69
384.37 34.92 29.02
384.05 35.54 31.75
383.9 34.5 27.42
383.65 34.42 27.16
383.09 34.86 29.23
391.03 35.2 29.28
390.78 35.17 29.23
390.68 34.54 26.62
390.38 34.7 27.39
390.12 34.68 27.39
389.44 36.38 34.77
389.68 35.41 30.63
389.0 37.17 38.23
388.28 37.1 38.18
388.83 34.58 27.39
388.05 37.02 37.91
387.8 37.02 38.03
387.55 37.05 38.24
387.39 36.64 36.53
386.41 36.56 36.55
385.87 36.85 37.96
385.63 36.82 37.89
385.48 34.31 27.37
384.9 36.74 37.79
384.94 36.44 36.52
384.66 36.73 37.85
384.44 36.5 36.94
384.61 35.01 30.62
384.4 34.62 29.03
384.09 35.15 31.36
384.14 34.61 29.07
383.93 34.19 27.39
383.63 34.58 29.13
383.68 34.07 26.95
383.12 34.56 29.22
390.81 34.87 29.23
390.74 34.14 26.17
390.41 34.41 27.41
389.96 35.14 30.64
389.46 36.14 35.04
389.89 34.36 27.4
389.0 37.01 38.83
388.76 37.01 38.91
388.52 36.98 38.88
388.28 36.96 38.87
388.86 34.28 27.39
388.03 36.94 38.88
387.79 36.92 38.87
387.55 36.9 38.87
387.31 36.88 38.87
387.07 36.86 38.86
386.83 36.87 38.97
386.59 36.82 38.85
386.35 36.81 38.88
386.11 36.79 38.88
385.86 36.78 38.9
385.62 36.75 38.88
385.38 36.74 38.9
385.14 36.71 38.87
385.21 36.16 36.53
384.9 36.69 38.85
384.66 36.62 38.65
384.46 36.25 37.16
384.39 34.69 30.6
384.18 34.31 29.06
384.22 33.91 27.38
383.67 34.29 29.14
383.7 33.88 27.41
383.15 34.26 29.22
391.09 34.61 29.28
390.79 33.78 25.89
390.24 34.89 30.76
390.44 34.11 27.4
389.99 34.84 30.65
389.4 36.2 36.55
389.47 35.91 35.29
389.02 36.76 39.06
389.66 34.05 27.4
388.74 36.93 39.83
388.5 36.91 39.82
388.26 36.88 39.81
388.89 33.98 27.39
388.02 36.85 39.73
387.78 36.84 39.77
387.55 36.78 39.61
387.32 36.71 39.38
386.35 36.66 39.5
386.1 36.69 39.72
385.98 35.92 36.53
385.63 36.63 39.6
385.74 35.9 36.53
385.4 36.56 39.39
385.54 33.72 27.39
384.91 36.54 39.5
384.69 36.4 38.96
384.55 35.48 35.15
384.46 34.02 29.04
384.5 33.64 27.39
384.17 34.38 30.64
383.18 33.97 29.24
391.12 34.3 29.27
390.8 33.53 26.11
390.56 33.45 25.88
390.11 34.17 29.04
389.49 35.68 35.6
389.01 36.65 39.87
388.72 36.86 40.83
388.49 36.78 40.57
388.46 35.82 36.54
388.92 33.68 27.4
388.21 35.8 36.55
385.77 35.6 36.54
385.39 36.5 40.46
385.52 35.59 36.55
385.14 36.54 40.67
385.57 33.42 27.39
384.91 36.45 40.4
384.74 35.89 38.08
384.57 35.25 35.46
384.45 34.1 30.63
384.2 34.08 30.63
383.8 32.91 25.87
383.47 33.68 29.19
383.21 33.67 29.24
391.15 34.0 29.26
390.9 33.97 29.24
390.82 33.27 26.3
390.5 33.5 27.39
390.14 33.87 29.04
390.33 33.13 25.88
389.5 35.46 35.96
389.89 33.84 29.01
389.04 36.35 39.88
389.09 36.12 38.88
389.14 35.91 37.99
388.7 36.76 41.71
388.46 36.74 41.7
388.73 35.54 36.56
389.2 33.41 27.43
388.22 36.72 41.69
388.95 33.38 27.4
387.99 36.7 41.67
388.24 35.49 36.52
387.75 36.69 41.73
387.5 36.72 41.93
385.86 36.51 41.63
385.63 36.44 41.38
385.79 35.3 36.54
385.4 36.37 41.15
385.15 36.42 41.46
385.31 35.26 36.52
384.93 36.28 40.96
384.59 35.03 35.79
384.52 33.42 29.02
384.27 33.41 29.06
384.08 32.64 25.89
383.83 32.61 25.88
383.58 32.38 24.98
383.24 33.36 29.23
391.18 33.7 29.29
390.93 33.67 29.22
390.84 33.01 26.5
390.97 32.52 24.36
390.53 33.2 27.41
389.92 33.54 29.02
390.1 32.81 25.91
389.05 36.12 40.18
389.14 35.75 38.6
388.74 36.43 41.57
388.45 36.64 42.57
389.07 33.85 30.59
388.21 36.63 42.6
388.98 33.1 27.47
387.97 36.62 42.64
388.27 35.2 36.54
387.74 36.59 42.61
387.5 36.58 42.61
388.2 33.03 27.44
387.95 33.0 27.41
387.04 36.5 42.44
386.8 36.5 42.51
387.43 32.96 27.41
386.57 36.43 42.31
386.34 36.35 42.05
386.92 32.92 27.39
386.66 32.9 27.42
386.4 32.88 27.43
385.82 35.0 36.53
386.14 32.86 27.41
385.38 36.36 42.42
385.15 36.32 42.33
384.95 36.01 41.09
384.78 35.47 38.85
385.02 33.53 30.62
384.61 34.85 36.3
384.3 33.11 29.09
384.38 32.35 25.87
384.03 33.18 29.46
383.79 33.08 29.15
383.82 32.68 27.42
383.62 31.98 24.54
383.27 33.06 29.24
391.21 33.4 29.27
390.86 32.76 26.67
390.46 33.31 29.12
390.2 33.27 29.07
389.53 34.99 36.51
389.95 33.25 29.03
389.1 35.74 39.8
389.87 32.49 25.87
388.7 36.41 42.78
388.44 36.53 43.37
389.1 33.56 30.64
388.2 36.51 43.36
387.97 36.46 43.24
388.3 34.9 36.55
387.73 36.48 43.39
387.5 36.42 43.22
387.28 36.36 43.03
387.06 36.26 42.69
386.82 36.24 42.67
386.33 36.33 43.23
386.09 36.35 43.41
385.86 36.28 43.18
385.63 36.22 43.02
385.86 34.7 36.54
385.17 36.14 42.81
384.98 35.77 41.31
385.02 35.45 39.95
384.82 35.05 38.35
384.63 34.6 36.5
384.58 32.82 29.03
384.67 32.08 25.89
384.27 33.39 31.53
384.07 32.81 29.16
383.87 32.14 26.42
383.88 32.04 25.97
383.56 32.78 29.22
383.65 31.65 24.43
383.3 32.77 29.25
391.24 33.1 29.25
390.74 33.03 29.14
390.88 32.5 26.88
390.47 33.06 29.37
390.07 33.63 31.89
390.23 32.97 29.05
390.51 31.87 24.33
389.57 34.63 36.28
389.98 32.94 29.03
389.19 35.2 38.79
388.72 36.16 42.99
388.42 36.44 44.29
388.17 36.47 44.49
388.33 34.6 36.54
387.56 35.99 42.65
387.35 33.13 30.67
387.1 33.09 30.62
386.85 33.08 30.63
386.6 33.06 30.64
386.34 33.04 30.63
385.67 35.84 42.65
385.88 34.4 36.54
385.39 36.17 44.13
385.19 35.87 42.94
385.06 35.04 39.5
384.85 34.81 38.62
384.61 32.52 29.03
384.29 33.15 31.78
384.1 32.52 29.2
383.9 31.92 26.73
383.59 32.48 29.23
383.7 31.18 23.68
391.28 32.8 29.25
390.9 32.24 27.03
390.99 31.9 25.56
390.48 32.85 29.74
390.58 32.45 28.04
390.1 33.33 31.91
389.65 34.14 35.47
390.28 31.54 24.31
389.21 34.93 38.94
388.74 35.92 43.24
388.81 35.6 41.9
388.4 36.36 45.22
388.17 36.33 45.18
387.94 36.32 45.2
388.36 34.29 36.53
387.71 36.26 45.01
387.83 35.7 42.64
388.4 32.89 30.62
387.47 36.27 45.15
387.59 35.68 42.64
387.23 36.31 45.38
387.36 35.66 42.61
387.12 35.64 42.64
386.88 35.62 42.63
386.65 35.6 42.62
386.32 36.16 45.06
386.09 36.13 45.02
385.85 36.14 45.14
386.49 32.0 27.48
385.62 36.07 44.94
385.92 34.1 36.52
386.12 32.71 30.62
385.39 36.03 44.84
385.22 35.6 43.08
385.18 34.04 36.52
384.87 34.57 38.87
384.72 33.81 35.7
384.64 32.21 29.02
384.31 32.91 32.05
384.12 32.31 29.58
384.15 32.02 28.36
383.92 31.67 26.96
383.72 31.03 24.33
383.36 32.16 29.24
391.31 32.5 29.27
391.06 32.46 29.21
391.01 31.66 25.82
390.63 32.08 27.73
390.11 33.13 32.31
389.71 33.71 34.9
389.24 34.62 38.89
390.04 31.26 24.46
388.83 35.36 42.15
389.77 31.25 24.51
388.41 36.14 45.56
387.93 36.19 45.94
388.09 35.42 42.65
388.39 33.99 36.54
387.69 36.22 46.14
388.18 32.58 30.67
387.24 36.14 45.95
387.01 36.08 45.78
386.54 36.1 46.05
386.3 36.13 46.23
386.78 31.7 27.44
385.85 36.01 45.88
385.97 35.25 42.66
385.62 35.99 45.87
385.95 33.8 36.53
385.42 35.75 44.92
385.26 35.22 42.74
385.46 33.76 36.53
384.89 34.32 39.09
384.72 33.7 36.54
384.67 31.91 29.01
384.8 30.81 24.35
384.34 32.66 32.28
384.15 32.06 29.83
384.16 31.88 29.06
384.29 30.57 23.49
383.95 31.41 27.14
384.03 30.49 23.23
383.75 30.73 24.35
383.39 31.87 29.25
391.34 32.2 29.26
390.84 32.13 29.13
390.51 32.38 30.3
390.58 32.09 29.05
390.12 32.89 32.57
390.33 32.07 29.07
389.65 33.79 36.54
390.07 32.05 29.08
390.17 31.66 27.4
389.27 34.36 39.04
388.81 35.26 43.02
388.47 35.7 44.98
388.14 36.14 46.94
387.93 36.05 46.65
388.43 33.69 36.54
388.69 31.18 25.88
388.42 31.23 26.18
387.96 32.26 30.64
387.59 31.46 27.4
387.33 31.44 27.4
386.69 32.16 30.65
385.85 35.92 46.79
385.63 35.87 46.62
385.46 35.42 44.82
385.73 33.48 36.55
385.3 34.84 42.4
385.57 30.94 25.88
384.93 33.99 38.94
385.31 30.92 25.92
385.05 30.89 25.88
384.71 31.61 29.01
384.79 30.88 25.9
384.36 32.41 32.5
384.41 31.98 30.68
384.53 30.86 25.91
384.19 31.58 29.05
384.27 30.83 25.87
383.98 31.15 27.3
384.0 30.95 26.49
383.68 31.58 29.23
391.37 31.89 29.21
391.12 31.87 29.21
390.87 31.84 29.17
390.61 31.84 29.24
390.14 32.66 32.86
390.36 31.78 29.08
389.68 33.49 36.54
389.31 34.02 38.9
388.87 34.87 42.62
389.59 31.73 29.12
388.42 35.79 46.61
388.48 35.51 45.44
388.13 36.05 47.82
388.82 31.69 29.23
387.68 36.0 47.77
388.21 33.38 36.53
387.45 35.99 47.78
387.21 36.02 48.0
387.73 31.95 30.68
386.54 35.9 47.73
387.23 31.89 30.6
386.31 35.87 47.68
385.85 35.85 47.75
385.65 35.66 47.03
385.48 35.18 45.06
385.33 34.57 42.54
385.76 31.4 29.02
385.51 31.32 28.8
384.99 33.48 38.05
385.27 31.22 28.43
384.79 33.11 36.57
384.99 31.34 29.05
384.74 31.34 29.11
384.76 31.09 28.05
384.44 31.68 30.63
384.23 31.26 28.94
383.97 31.28 29.14
383.71 31.28 29.23
390.89 31.55 29.22
390.64 31.51 29.15
390.16 32.41 33.11
389.67 33.39 37.38
389.75 33.05 35.92
389.97 32.11 31.91
389.34 33.71 38.86
389.72 32.09 31.88
388.92 34.47 42.16
389.47 32.07 31.88
388.48 35.36 46.08
388.12 35.93 48.58
388.72 31.98 31.76
388.48 31.93 31.65
387.43 35.92 48.79
388.0 33.06 36.55
387.21 35.86 48.62
386.99 35.8 48.41
387.75 31.72 30.98
386.76 35.83 48.62
387.51 31.65 30.77
386.52 35.87 48.88
386.31 35.73 48.35
386.09 35.71 48.35
386.53 32.94 36.54
385.85 35.75 48.6
385.67 35.43 47.3
385.5 34.94 45.31
385.59 34.31 42.64
385.98 31.58 30.99
385.35 34.34 42.81
385.53 31.1 29.13
384.99 33.37 38.86
384.82 32.8 36.52
384.98 31.43 30.72
385.02 31.06 29.13
384.65 32.09 33.57
384.45 31.6 31.6
384.47 31.4 30.76
383.74 30.98 29.22
383.49 30.97 29.25
389.76 32.84 36.31
389.33 33.56 39.49
389.39 33.31 38.41
388.97 34.08 41.82
389.39 32.25 33.97
388.53 34.99 45.79
389.13 32.28 34.16
388.2 35.41 47.66
387.88 35.84 49.57
387.64 35.86 49.73
387.41 35.87 49.88
387.48 35.51 48.34
388.37 31.04 29.2
387.78 32.74 36.57
388.11 31.02 29.19
387.86 31.0 29.2
387.6 30.98 29.2
386.57 35.44 48.34
386.81 32.66 36.54
386.08 35.66 49.42
386.11 35.42 48.4
385.86 35.59 49.22
385.89 35.39 48.36
385.69 35.19 47.57
385.53 34.7 45.55
385.37 34.1 43.08
385.41 31.95 34.04
385.46 31.58 32.46
385.02 33.07 38.88
384.85 32.5 36.51
384.93 31.78 33.48
384.67 31.88 33.98
384.69 31.69 33.19
384.28 30.71 29.18
384.03 30.7 29.23
389.76 32.64 36.74
389.4 33.13 38.95
388.96 33.98 42.64
389.01 33.77 41.74
389.29 32.54 36.5
388.57 34.66 45.64
389.04 32.53 36.54
389.09 32.3 35.55
388.07 35.85 50.82
388.16 35.45 49.12
387.87 35.73 50.41
387.65 35.65 50.14
387.74 35.24 48.36
387.43 35.64 50.15
387.78 33.88 42.63
388.1 32.26 35.72
387.2 35.64 50.23
387.84 32.28 35.89
386.98 35.61 50.19
386.74 35.64 50.4
387.07 33.83 42.65
386.52 35.63 50.42
387.09 32.31 36.26
386.3 35.54 50.13
386.37 35.12 48.34
386.86 32.2 35.86
386.08 35.54 50.2
385.92 35.09 48.35
386.39 32.03 35.32
385.79 34.43 45.6
386.15 31.96 35.09
386.35 30.59 29.26
385.91 31.94 35.07
385.4 33.84 43.27
385.45 33.46 41.66
385.65 32.0 35.43
385.85 30.55 29.24
385.25 33.12 40.28
385.59 30.53 29.24
385.06 32.72 38.67
384.88 32.18 36.44
384.06 30.41 29.27
392.32 35.33 48.47
392.07 35.37 48.75
389.67 35.67 50.79
389.45 35.65 50.81
389.22 35.64 50.81
389.0 35.62 50.82
388.77 35.62 50.89
389.39 32.98 39.56
388.55 35.61 50.92
388.96 33.79 43.13
388.6 34.35 45.6
388.97 32.67 38.42
388.23 34.97 48.35
387.84 35.7 51.53
387.62 35.67 51.49
388.26 32.53 38.06
387.4 35.65 51.48
387.81 33.59 42.67
387.18 35.63 51.49
386.95 35.65 51.62
386.73 35.61 51.55
386.51 35.57 51.44
386.29 35.53 51.35
386.08 35.43 51.02
386.18 34.81 48.38
385.86 35.37 50.83
385.95 34.78 48.32
385.64 35.36 50.84
386.05 32.54 38.83
385.41 35.34 50.84
385.19 35.32 50.82
385.48 33.19 41.76
385.6 32.25 37.78
384.96 35.3 50.83
385.28 32.88 40.54
385.09 32.45 38.79
385.11 32.31 38.16
392.02 35.33 49.86
391.28 35.49 50.79
391.05 35.48 50.81
390.82 35.47 50.82
390.6 35.45 50.81
390.37 35.44 50.84
390.12 35.53 51.34
389.89 35.55 51.48
389.66 35.56 51.6
389.43 35.55 51.65
389.2 35.56 51.75
388.98 35.55 51.78
389.01 33.4 42.72
388.65 33.95 45.17
388.25 34.69 48.41
388.62 33.02 41.26
387.81 35.69 52.76
387.8 34.63 48.32
388.12 33.08 41.69
387.46 35.2 50.84
387.15 35.61 52.67
386.93 35.61 52.75
386.71 35.58 52.7
386.5 35.48 52.32
386.27 35.5 52.49
386.44 34.52 48.32
386.06 35.41 52.2
386.1 35.2 51.27
385.98 34.5 48.38
385.63 35.32 51.94
385.41 35.29 51.88
385.64 33.66 44.94
385.19 35.25 51.82
385.48 33.12 42.73
384.97 35.22 51.76
385.3 32.65 40.8
384.77 35.02 50.97
384.54 34.99 50.92
384.32 34.95 50.84
384.1 34.93 50.83
383.87 34.91 50.83
382.57 34.24 48.43
382.33 34.29 48.73
382.11 34.23 48.53
392.2 35.29 50.9
391.98 35.27 50.87
391.74 35.29 51.05
391.51 35.28 51.06
391.3 35.22 50.88
391.06 35.27 51.18
390.86 35.17 50.82
390.63 35.14 50.81
389.96 35.1 50.83
389.29 35.04 50.81
388.69 33.6 44.95
388.29 34.37 48.33
388.55 33.2 43.31
387.79 35.64 53.87
387.83 34.34 48.35
388.07 33.18 43.38
387.36 35.58 53.75
387.85 33.11 43.19
387.13 35.62 53.97
387.62 33.05 43.02
386.9 35.64 54.14
387.39 32.97 42.76
386.7 35.53 53.74
387.16 32.95 42.75
386.48 35.48 53.6
386.26 35.47 53.65
386.05 35.38 53.33
386.09 35.14 52.32
386.0 34.28 48.72
386.22 32.86 42.66
385.85 33.74 46.51
385.98 32.84 42.65
385.67 33.37 45.02
385.25 34.72 50.82
385.5 32.89 43.04
384.11 34.8 51.54
383.89 34.76 51.47
383.67 34.73 51.39
383.46 34.6 50.93
383.23 34.56 50.84
383.01 34.54 50.83
382.79 34.52 50.8
382.56 34.5 50.8
382.13 34.23 49.82
391.54 34.99 51.15
391.31 34.99 51.19
391.1 34.91 50.92
390.88 34.88 50.87
390.44 34.83 50.82
389.99 34.8 50.83
389.09 34.72 50.84
388.87 34.7 50.79
388.61 33.79 47.08
388.68 33.49 45.75
388.24 34.45 49.95
388.32 34.07 48.35
387.77 35.59 54.94
387.54 35.61 55.09
387.31 35.64 55.28
387.64 34.02 48.35
387.3 34.58 50.81
387.54 33.31 45.4
387.07 34.57 50.86
387.3 33.35 45.63
387.06 33.35 45.74
386.46 35.45 54.79
386.72 33.95 48.35
386.25 35.43 54.78
386.15 34.66 51.54
386.19 34.39 50.4
386.02 34.04 49.0
386.17 33.08 44.91
385.87 33.49 46.71
385.72 32.93 44.43
385.05 34.41 50.85
384.83 34.38 50.83
383.49 34.28 50.84
383.04 34.24 50.81
382.81 34.3 51.17
382.59 34.26 51.08
382.36 34.24 51.06
382.14 34.17 50.86
381.92 34.16 50.86
393.77 35.59 54.19
393.57 35.52 53.95
390.66 34.68 51.39
390.43 34.67 51.43
390.21 34.66 51.44
390.02 34.51 50.88
389.78 34.53 51.05
389.25 35.74 56.31
389.56 34.5 51.0
389.03 35.71 56.29
388.81 35.7 56.32
388.6 35.69 56.32
388.38 35.67 56.32
388.16 35.65 56.32
387.95 35.63 56.3
387.73 35.63 56.39
387.51 35.6 56.33
387.32 35.47 55.84
387.69 33.59 47.78
387.11 35.42 55.69
387.45 33.62 48.02
386.66 35.48 56.11
386.43 35.51 56.32
386.22 35.49 56.31
386.0 35.48 56.32
386.22 34.13 50.55
385.78 35.46 56.32
386.07 33.59 48.34
384.64 34.07 50.83
384.41 34.05 50.85
383.97 34.03 50.9
383.74 34.07 51.14
383.51 34.05 51.14
383.29 34.07 51.29
383.06 34.04 51.25
393.72 35.5 55.09
391.88 35.64 56.27
391.44 35.6 56.28
391.22 35.59 56.29
391.01 35.57 56.29
390.79 35.56 56.3
390.57 35.54 56.31
390.35 35.55 56.41
390.14 35.52 56.39
389.92 35.51 56.38
389.7 35.48 56.35
389.49 35.45 56.29
389.24 35.55 56.81
389.55 34.36 51.68
389.03 35.52 56.72
389.32 34.35 51.72
388.78 35.65 57.35
388.56 35.64 57.4
388.92 34.11 50.85
388.35 35.63 57.43
388.7 34.1 50.89
388.13 35.63 57.49
387.91 35.62 57.53
387.7 35.61 57.58
387.48 35.59 57.56
387.27 35.56 57.5
387.06 35.53 57.43
386.85 35.49 57.34
386.63 35.49 57.41
386.41 35.49 57.51
386.23 35.28 56.68
386.0 35.38 57.15
386.2 34.13 51.85
386.24 33.88 50.79
385.79 35.3 56.91
385.38 35.16 56.46
385.56 33.85 50.86
385.16 35.15 56.5
385.34 33.83 50.87
384.95 35.11 56.37
385.11 33.81 50.87
384.73 35.07 56.31
384.52 35.06 56.32
384.3 35.04 56.32
384.08 35.02 56.32
384.2 33.9 51.52
383.87 35.01 56.31
393.64 35.48 56.31
393.42 35.48 56.35
393.2 35.47 56.39
392.97 35.48 56.5
392.75 35.48 56.59
392.53 35.47 56.63
392.31 35.47 56.67
391.87 35.45 56.76
391.65 35.44 56.78
391.44 35.41 56.74
391.21 35.43 56.9
391.04 35.27 56.3
390.83 35.25 56.25
389.09 35.12 56.29
388.68 34.05 51.93
388.45 34.04 51.97
388.23 34.0 51.86
387.68 35.55 58.6
387.47 35.52 58.56
387.8 33.88 51.51
387.26 35.47 58.37
387.58 33.86 51.5
387.06 35.41 58.23
386.84 35.42 58.32
386.93 34.94 56.29
387.13 33.84 51.56
386.62 35.46 58.56
386.9 33.86 51.73
386.41 35.39 58.34
386.69 33.81 51.6
386.23 35.21 57.63
386.18 34.12 53.08
386.22 33.88 52.04
386.01 33.8 51.77
385.63 34.84 56.3
385.78 33.81 51.89
385.56 33.79 51.89
385.34 33.76 51.84
384.95 35.03 57.32
384.74 35.0 57.27
384.52 34.97 57.23
384.31 34.94 57.18
384.1 34.89 57.04
383.9 34.72 56.38
383.68 34.74 56.51
383.47 34.7 56.43
383.25 34.66 56.32
383.03 34.64 56.32
382.82 34.62 56.32
382.6 34.6 56.32
382.39 34.58 56.29
380.88 33.99 54.3
380.66 34.07 54.71
393.0 35.19 56.58
392.78 35.19 56.62
392.56 35.18 56.65
392.36 35.11 56.43
392.15 35.07 56.36
391.94 35.04 56.29
391.51 35.0 56.28
390.64 34.94 56.3
390.42 34.92 56.28
389.77 34.86 56.27
388.9 34.8 56.32
387.66 35.47 59.53
387.97 34.0 53.24
387.75 34.01 53.38
387.24 35.41 59.43
387.55 33.89 52.91
387.02 35.44 59.63
386.83 35.35 59.31
386.62 35.27 59.06
386.88 33.85 53.0
386.4 35.33 59.4
386.28 34.75 56.95
386.33 34.46 55.75
385.23 34.51 56.32
384.58 34.45 56.3
383.5 34.37 56.32
382.84 34.43 56.79
382.63 34.43 56.84
382.41 34.4 56.81
382.2 34.38 56.79
381.98 34.34 56.69
381.77 34.26 56.41
381.55 34.22 56.33
381.34 34.2 56.33
381.12 34.19 56.34
380.9 34.16 56.32
380.69 34.06 55.94
380.47 34.13 56.31
391.49 34.84 56.87
391.27 34.83 56.9
391.06 34.82 56.94
390.88 34.68 56.43
390.67 34.65 56.34
390.45 34.63 56.35
390.23 34.61 56.34
390.02 34.58 56.26
389.8 34.57 56.3
388.5 34.46 56.29
387.87 35.34 60.19
387.63 35.46 60.81
387.93 34.07 54.84
387.43 35.42 60.71
387.64 34.39 56.29
387.72 33.98 54.53
387.21 35.46 60.94
386.99 35.49 61.14
387.3 33.86 54.15
386.8 35.37 60.69
387.09 33.8 53.97
386.6 35.31 60.49
386.39 35.27 60.4
386.35 34.23 56.03
385.04 34.19 56.31
384.83 34.17 56.3
384.61 34.15 56.3
383.1 34.04 56.32
382.88 34.02 56.31
382.66 34.01 56.37
382.45 34.0 56.38
382.23 33.98 56.37
382.01 33.99 56.51
381.8 34.02 56.68
381.58 33.99 56.66
381.37 33.97 56.62
381.15 33.89 56.35
380.93 33.91 56.52
380.72 33.85 56.35
380.5 33.83 56.35
391.7 35.34 60.19
389.99 34.49 57.16
389.49 35.54 61.76
389.78 34.48 57.19
389.28 35.53 61.78
389.56 34.47 57.24
389.07 35.51 61.78
388.86 35.5 61.79
388.66 35.48 61.79
388.45 35.46 61.79
388.24 35.45 61.82
388.53 34.17 56.32
388.02 35.45 61.9
388.31 34.15 56.33
387.82 35.41 61.8
388.1 34.13 56.3
387.6 35.47 62.1
387.38 35.49 62.25
387.2 35.36 61.8
386.99 35.35 61.8
386.78 35.35 61.86
386.56 35.36 62.0
386.36 35.32 61.88
386.15 35.28 61.8
385.95 35.26 61.8
385.74 35.25 61.79
385.53 35.23 61.79
385.5 33.96 56.46
385.28 33.95 56.48
385.07 33.92 56.42
384.85 33.88 56.34
384.64 33.86 56.32
384.42 33.84 56.31
384.2 33.9 56.63
383.97 33.98 57.04
383.76 33.96 57.06
383.54 33.94 57.02
383.33 33.91 56.98
391.82 35.42 61.75
391.64 35.3 61.3
391.4 35.39 61.75
391.19 35.37 61.77
390.98 35.36 61.78
390.77 35.34 61.77
390.56 35.33 61.78
390.35 35.31 61.78
390.14 35.32 61.88
389.93 35.31 61.91
389.7 35.36 62.22
389.5 35.33 62.13
389.29 35.33 62.23
389.05 35.42 62.66
388.84 35.42 62.74
388.63 35.41 62.78
388.42 35.41 62.84
388.21 35.41 62.91
388.5 34.14 57.46
388.0 35.4 62.95
388.28 34.12 57.48
387.79 35.41 63.06
388.07 34.13 57.56
387.58 35.41 63.12
387.38 35.37 63.03
387.17 35.36 63.05
387.44 34.0 57.24
386.96 35.34 63.03
387.23 33.95 57.1
386.75 35.32 63.05
386.81 35.03 61.8
386.55 35.31 63.05
386.34 35.29 63.03
386.14 35.25 62.96
385.94 35.22 62.88
386.15 33.88 57.18
385.73 35.17 62.76
385.77 34.95 61.8
385.93 33.92 57.42
385.71 33.9 57.42
385.5 33.88 57.39
385.14 34.93 61.93
384.93 34.89 61.83
384.73 34.87 61.81
384.52 34.85 61.8
384.31 34.83 61.8
384.1 34.81 61.79
382.89 34.23 59.77
382.67 34.22 59.76
391.85 35.13 61.79
391.64 35.11 61.78
391.41 35.15 62.01
391.21 35.12 61.96
391.01 35.08 61.87
390.8 35.05 61.78
390.39 35.01 61.79
390.18 35.0 61.79
389.55 34.94 61.77
388.93 34.9 61.78
387.93 34.59 60.84
387.55 35.38 64.3
387.82 34.12 58.89
387.36 35.29 63.97
387.62 34.04 58.62
387.26 34.77 61.82
387.42 33.97 58.39
387.05 34.75 61.8
387.21 33.9 58.17
386.74 35.27 64.08
386.53 35.28 64.21
386.77 33.96 58.59
386.45 34.56 61.2
385.59 34.63 61.79
385.38 34.62 61.8
384.74 34.74 62.55
384.53 34.72 62.5
384.33 34.69 62.45
384.12 34.64 62.34
383.92 34.57 62.08
383.72 34.49 61.84
383.51 34.47 61.83
383.3 34.45 61.82
383.09 34.43 61.8
382.89 34.41 61.77
382.68 34.27 61.24
390.38 34.84 62.33
390.17 34.84 62.38
389.99 34.71 61.91
389.77 34.74 62.11
389.57 34.72 62.08
389.36 34.68 62.01
389.16 34.65 61.94
388.54 34.57 61.8
388.34 34.54 61.76
387.73 35.37 65.45
387.81 34.99 63.82
387.99 34.17 60.3
387.52 35.37 65.52
387.34 35.27 65.16
387.5 34.48 61.78
387.38 33.99 59.77
386.72 35.26 65.33
386.87 34.43 61.8
386.57 34.96 64.11
386.47 34.33 61.52
386.52 34.06 60.36
385.21 34.3 61.81
385.0 34.28 61.8
384.79 34.27 61.8
383.96 34.2 61.83
383.75 34.2 61.86
383.54 34.2 61.93
383.33 34.23 62.14
383.12 34.2 62.09
382.91 34.17 62.04
382.71 34.1 61.82
382.5 34.09 61.82
389.36 34.53 62.64
389.15 34.52 62.66
388.94 34.51 62.72
388.73 34.49 62.67
388.56 34.34 62.12
388.36 34.25 61.78
388.15 34.24 61.82
387.95 34.21 61.79
387.5 35.34 66.7
387.31 35.26 66.41
387.53 34.18 61.81
387.32 34.17 61.8
387.11 34.15 61.79
386.69 35.26 66.63
386.91 34.12 61.76
386.53 35.04 65.73
386.49 34.09 61.78
386.28 34.08 61.79
386.07 34.08 61.84
385.86 34.06 61.83
385.65 34.04 61.83
385.44 34.04 61.9
385.24 34.0 61.8
385.01 34.16 62.55
384.8 34.15 62.56
384.59 34.11 62.49
384.39 34.09 62.48
388.34 34.21 62.91
388.13 34.21 62.96
387.92 34.21 63.03
387.71 34.21 63.1
387.51 34.16 62.96
387.1 35.17 67.36
387.31 34.07 62.67
386.91 35.08 67.04
387.09 34.13 62.98
386.89 34.09 62.88
386.55 34.81 66.03
386.47 34.07 62.94
386.27 34.05 62.95
386.06 34.03 62.92
385.86 34.0 62.86
387.76 34.76 66.69
387.52 34.94 67.54
387.67 34.2 64.37
387.32 34.9 67.42
387.49 34.1 64.0
386.92 34.88 67.47
386.72 34.89 67.57
386.87 34.07 64.08
386.61 34.33 65.25
387.74 34.71 67.73
387.79 34.46 66.7
387.54 34.69 67.74
387.34 34.68 67.74
387.14 34.66 67.73
386.94 34.64 67.71
386.74 34.63 67.75
386.59 34.34 66.58
