196.99 41.39 101.35
196.52 40.51 103.96
196.32 40.24 104.63
195.0 40.38 105.39
196.1 40.02 105.22
194.89 40.34 105.46
194.81 40.23 105.88
195.46 39.24 107.71
195.44 39.12 107.79
195.33 39.06 108.09
193.47 39.3 108.79
193.16 39.12 109.54
192.82 38.91 110.24
194.56 38.07 110.96
189.26 35.67 101.72
189.62 35.45 101.38
189.81 35.41 101.4
189.8 35.15 100.64
191.85 38.28 112.44
189.87 35.42 102.53
189.49 35.5 102.46
189.48 35.2 101.58
189.62 35.46 102.88
189.6 35.14 101.92
189.8 35.41 102.89
189.78 35.08 101.9
191.77 38.18 112.58
194.1 37.55 112.58
191.65 38.1 112.88
189.87 35.43 103.61
189.86 35.17 102.85
189.68 35.47 103.6
189.5 35.52 103.61
189.48 35.14 102.46
180.02 37.72 102.58
180.66 37.56 104.05
180.84 37.56 104.2
189.49 35.56 105.16
189.46 35.14 103.91
189.85 35.47 105.19
189.83 34.99 103.75
190.04 35.43 105.23
190.02 34.99 103.91
189.91 35.43 106.62
189.89 34.93 105.14
189.34 35.13 105.29
181.48 37.35 105.64
181.98 37.16 106.62
189.29 35.01 106.07
189.51 35.6 107.98
189.84 34.87 106.1
190.05 35.46 108.0
193.41 36.8 114.91
190.09 35.48 108.43
189.88 34.92 106.6
189.73 35.55 108.34
189.55 35.54 108.17
189.51 34.95 106.42
182.22 37.15 107.14
182.03 37.09 106.81
182.67 37.03 107.88
189.4 35.66 109.17
189.37 35.06 107.4
189.55 34.94 107.16
189.94 35.49 109.12
189.91 34.81 107.09
190.12 35.48 109.22
193.41 36.65 115.28
190.22 35.48 110.4
190.03 35.19 109.4
190.01 34.81 108.26
189.68 35.57 110.24
189.64 34.85 108.09
189.31 35.67 110.25
189.3 35.33 109.25
189.27 34.92 108.01
183.11 36.83 108.84
184.17 36.58 110.81
189.24 35.66 112.08
189.22 35.37 111.24
189.2 34.92 109.88
189.41 35.53 111.84
189.78 35.6 112.33
190.1 34.65 109.8
190.17 35.47 113.31
189.96 34.69 110.83
189.81 35.6 113.41
189.45 35.57 113.04
189.05 34.86 110.63
184.58 36.46 111.85
184.7 36.36 112.1
189.19 35.22 112.24
189.35 34.78 111.09
189.72 34.94 111.83
189.92 35.46 113.55
190.1 35.46 113.68
190.08 34.99 112.27
192.81 35.96 117.29
192.74 35.88 117.53
190.22 35.44 114.24
190.04 35.43 114.07
190.01 34.71 111.91
189.86 35.52 114.2
189.82 34.7 111.74
189.64 34.65 111.45
189.32 35.68 114.24
189.1 34.93 111.85
185.36 38.47 119.42
184.98 36.3 112.68
185.21 38.1 119.54
185.75 36.08 113.99
189.12 34.81 112.89
189.34 35.65 115.54
189.87 35.47 115.43
189.83 34.52 112.58
190.05 35.47 115.58
190.01 34.52 112.73
190.23 35.41 115.52
195.19 35.43 119.5
195.06 35.0 119.54
192.41 35.43 118.74
190.28 35.36 116.87
189.92 35.46 116.9
189.75 35.51 116.91
189.57 35.56 116.91
189.39 35.61 116.93
189.21 35.62 116.81
189.19 35.08 115.19
187.94 38.22 123.5
186.35 35.9 115.43
185.04 37.64 119.54
184.93 37.25 119.53
186.97 35.72 116.62
187.82 37.83 123.54
188.79 36.18 119.4
189.09 35.11 116.48
189.07 34.69 115.23
189.3 35.61 118.13
189.46 35.18 116.98
189.43 34.64 115.36
189.64 35.1 116.86
189.61 34.52 115.12
190.01 35.43 118.13
189.97 34.56 115.55
190.18 35.36 118.08
190.17 35.08 117.23
194.95 34.59 119.52
192.19 35.18 119.46
190.05 34.96 117.15
189.88 35.38 118.27
189.71 35.49 118.43
189.69 34.97 116.87
189.51 35.05 116.99
189.31 34.58 115.44
189.17 35.45 117.89
189.16 35.14 116.96
188.96 34.71 115.53
188.67 36.14 119.54
187.03 35.69 116.95
187.48 35.58 117.68
187.77 37.48 123.55
188.57 36.04 119.91
189.04 34.73 116.39
189.24 35.31 118.28
189.43 35.53 119.07
189.39 34.57 116.19
189.75 34.59 116.53
189.93 34.67 116.92
189.92 34.34 115.91
190.12 34.82 117.49
194.88 34.26 119.58
194.7 33.96 119.55
190.12 35.32 120.03
190.11 35.06 119.24
189.94 35.4 120.13
189.91 34.42 117.19
189.73 34.48 117.22
189.56 34.58 117.4
189.24 35.53 119.97
189.22 35.04 118.5
189.02 34.67 117.25
188.37 35.92 120.44
187.98 35.43 118.67
184.67 36.44 121.03
187.99 35.66 121.32
188.35 35.77 121.91
188.53 35.72 121.89
188.7 35.68 121.91
188.67 35.12 120.24
188.87 35.63 121.92
189.05 35.59 121.92
189.22 35.54 121.94
189.4 35.5 121.93
189.57 35.46 121.96
189.75 35.42 121.97
190.1 35.3 121.89
190.28 35.27 121.94
190.45 35.21 121.89
190.62 35.14 121.85
194.47 33.56 120.17
194.65 33.63 120.52
194.68 33.59 121.45
194.5 33.62 121.43
193.81 33.98 121.93
193.63 34.01 121.9
193.46 34.06 121.9
193.28 34.1 121.89
193.1 34.17 121.97
192.93 34.23 122.0
192.75 34.32 122.15
192.58 34.38 122.18
192.4 34.38 122.05
192.23 34.47 122.18
191.88 34.48 121.91
191.71 34.57 122.06
191.54 34.64 122.13
191.36 34.6 121.89
191.02 34.98 122.74
190.84 35.04 122.78
190.67 35.09 122.8
190.32 35.21 122.89
190.15 35.28 122.94
189.8 35.37 122.94
189.79 35.04 121.96
189.63 35.41 122.94
189.45 35.46 122.95
189.28 35.51 122.96
189.11 35.54 122.92
188.93 35.57 122.86
188.76 35.6 122.83
188.58 35.63 122.79
188.57 35.32 121.84
188.41 35.67 122.75
188.23 35.7 122.71
188.06 35.74 122.68
187.89 35.77 122.64
187.71 35.8 122.59
187.54 35.83 122.56
187.37 35.87 122.54
187.21 36.26 123.58
187.19 35.9 122.5
187.02 35.94 122.46
186.67 36.01 122.4
186.49 36.04 122.35
186.32 36.07 122.33
186.14 36.11 122.29
185.97 36.14 122.25
185.79 36.18 122.24
185.62 36.2 122.17
185.44 36.25 122.16
185.27 36.28 122.12
185.09 36.32 122.1
184.92 36.35 122.05
184.74 36.38 122.01
184.57 36.38 121.87
184.32 35.6 119.38
184.51 36.24 121.89
184.69 36.21 121.95
184.86 36.17 121.95
185.04 36.1 121.89
185.21 36.05 121.87
185.38 36.0 121.87
185.56 35.95 121.86
185.73 35.91 121.87
185.91 35.87 121.88
186.08 35.82 121.86
186.26 35.79 121.93
186.78 35.65 121.91
187.13 35.56 121.92
187.48 35.48 121.96
187.65 35.44 121.98
187.82 35.37 121.9
188.69 35.13 121.88
188.85 34.71 120.74
189.03 34.7 120.86
189.23 35.42 123.15
189.41 35.39 123.21
189.9 34.35 120.5
190.1 35.14 123.0
190.09 34.78 121.93
190.34 37.25 129.46
190.61 34.63 121.89
191.14 34.75 122.66
191.31 34.45 121.9
191.49 34.47 122.1
191.66 34.42 122.08
191.84 34.55 122.61
192.01 34.48 122.53
192.19 34.43 122.53
192.36 34.37 122.48
192.53 34.32 122.46
192.71 34.26 122.41
192.88 34.19 122.36
193.06 34.14 122.34
193.23 34.08 122.29
193.4 34.02 122.26
193.58 33.96 122.21
193.75 33.9 122.17
193.93 33.84 122.13
194.1 33.78 122.1
194.28 33.72 122.06
194.45 33.67 122.02
194.63 33.58 121.91
194.61 33.43 121.89
194.43 33.48 121.89
194.26 33.52 121.87
194.27 32.68 119.38
194.08 33.56 121.88
193.91 33.61 121.88
193.73 33.66 121.88
193.56 33.7 121.89
193.38 33.74 121.85
193.21 33.8 121.91
193.03 33.99 122.33
192.68 33.94 121.9
192.5 33.97 121.85
192.33 34.03 121.9
192.15 34.07 121.88
191.63 34.26 122.04
191.45 34.34 122.14
191.1 34.35 121.89
190.58 34.49 121.9
190.3 37.08 129.4
190.07 35.26 123.81
190.07 34.98 122.97
190.06 34.66 122.01
189.9 35.26 123.68
189.87 34.37 121.01
189.53 34.77 121.92
189.43 31.93 113.36
189.35 34.83 121.98
189.19 35.21 122.96
188.99 34.6 121.0
188.65 34.99 121.89
187.78 35.25 121.98
187.61 35.31 122.04
187.43 35.32 121.93
187.26 35.36 121.9
187.08 35.4 121.89
186.91 35.45 121.89
186.73 35.49 121.89
186.56 35.54 121.89
186.38 35.58 121.89
186.21 35.63 121.89
186.03 35.68 121.91
185.86 35.74 121.96
185.69 35.85 122.13
185.51 35.9 122.16
185.34 35.94 122.14
185.16 35.98 122.12
187.14 35.7 124.17
187.46 35.1 122.63
187.63 35.06 122.63
187.8 35.02 122.66
188.15 34.88 122.5
188.32 34.82 122.47
189.01 34.58 122.3
189.21 35.18 124.23
189.2 34.86 123.27
189.57 35.42 125.23
189.53 34.38 122.11
189.71 34.37 122.21
189.88 34.31 122.17
190.07 34.7 123.49
190.25 35.17 125.04
190.75 34.15 122.37
190.92 34.07 122.27
191.1 34.11 122.53
191.27 34.1 122.64
191.45 34.04 122.6
191.62 33.99 122.59
191.79 33.94 122.56
191.97 33.89 122.56
190.13 35.01 125.99
189.99 36.23 129.52
189.94 34.38 123.96
189.79 35.24 126.4
189.62 35.33 126.55
189.27 35.39 126.47
189.08 34.82 124.6
189.07 34.52 123.71
188.92 35.3 125.92
188.41 35.45 125.96
188.06 35.53 125.93
187.89 35.57 125.93
187.72 35.62 125.95
187.55 35.65 125.88
187.2 35.63 125.56
187.02 35.66 125.53
187.3 35.27 126.1
187.47 35.23 126.12
187.64 35.13 125.97
187.82 35.07 125.91
187.99 35.02 125.9
188.16 34.97 125.89
188.33 34.93 125.92
189.02 34.76 125.93
189.01 34.49 125.13
189.22 35.37 127.9
189.21 35.04 126.92
189.54 34.43 125.36
189.72 34.58 125.96
189.71 34.33 125.21
189.88 34.26 125.12
190.08 35.16 127.95
193.88 31.17 119.07
193.78 31.08 119.15
190.15 35.13 128.4
189.97 34.7 126.98
189.96 34.44 126.17
189.82 35.59 129.5
189.81 35.18 128.26
189.64 35.26 128.39
189.44 34.32 125.43
189.3 35.35 128.38
189.26 34.41 125.56
189.11 34.91 126.91
188.92 34.56 125.73
188.75 34.66 125.9
188.57 34.71 125.9
188.4 34.75 125.91
188.23 34.81 125.94
188.06 34.87 125.98
187.89 35.04 126.37
187.72 35.07 126.31
188.35 34.79 126.59
188.53 34.77 126.69
189.04 34.67 126.77
189.24 35.31 128.85
189.41 35.28 128.89
189.58 35.22 128.85
189.76 35.4 129.52
189.92 35.13 128.84
189.9 34.23 126.15
190.09 35.09 128.85
190.08 34.62 127.46
190.11 34.92 129.36
189.92 34.23 127.14
189.59 35.06 129.38
189.57 34.24 126.9
189.42 35.07 129.28
189.07 34.87 128.41
189.06 34.41 127.03
188.88 34.43 126.95
186.58 33.78 123.21
189.01 34.42 128.94
189.19 34.44 129.14
189.36 34.46 129.33
189.53 34.59 129.87
189.7 34.55 129.88
189.7 34.21 128.85
189.88 34.51 129.89
189.87 34.17 128.85
189.35 34.14 129.46
189.14 33.33 129.35
188.66 31.92 129.07
