1245951.99 4851981.47 25.28
1245952.00 4851981.06 26.35
1245953.39 4851980.86 23.77
1245953.13 4851979.22 28.73
1245953.31 4851978.96 29.03
1245955.75 4851978.91 23.73
1245955.09 4851978.48 26.37
1245956.20 4851978.52 23.78
1245955.68 4851978.37 25.33
1245955.23 4851978.59 26.34
1245953.53 4851978.66 29.93
1245954.00 4851978.67 28.85
1245953.46 4851978.79 29.74
1245953.32 4851978.92 29.71
1245955.72 4851979.14 23.77
1245953.23 4851979.19 29.19
1245955.59 4851979.28 23.71
1245952.97 4851979.57 28.74
1245952.88 4851979.84 28.25
1245953.57 4851980.95 23.74
1245951.99 4851981.28 26.39
1245951.86 4851981.40 26.34
1245951.86 4851981.82 25.26
1245952.49 4851981.86 23.74
1245951.52 4851982.08 25.32
1245951.34 4851982.34 25.01
1245950.89 4851982.58 25.39
1245950.37 4851982.97 25.51
1245950.97 4851983.01 24.05
1245950.86 4851983.14 23.94
1245950.78 4851983.27 23.79
1245950.71 4851983.41 23.57
1245950.95 4851983.70 22.25
1245951.05 4851983.86 21.61
1245951.07 4851984.00 21.20
1245951.56 4851984.03 21.72
1245951.42 4851983.88 22.42
1245950.45 4851983.53 25.52
1245951.16 4851983.58 23.83
1245951.02 4851983.29 24.91
1245951.05 4851983.16 25.20
1245951.16 4851983.02 25.33
1245951.40 4851982.62 25.85
1245951.81 4851982.51 25.23
1245951.50 4851982.36 26.34
1245951.64 4851982.23 26.37
1245952.74 4851982.29 23.76
1245954.13 4851981.12 23.76
1245952.74 4851980.39 28.82
1245952.86 4851980.26 28.92
1245955.24 4851980.22 23.71
1245955.37 4851980.09 23.75
1245953.14 4851979.72 29.70
1245953.32 4851979.34 30.35
1245953.40 4851979.21 30.49
1245953.50 4851979.07 30.63
1245956.45 4851979.18 23.78
1245953.56 4851978.94 30.85
1245953.68 4851978.82 30.90
1245954.35 4851978.84 29.37
1245954.86 4851978.86 28.21
1245956.54 4851978.50 25.40
1245958.04 4851978.78 21.82
1245955.94 4851978.84 26.34
1245953.79 4851978.91 30.94
1245954.93 4851978.95 28.30
1245953.59 4851979.03 31.07
1245953.51 4851979.16 30.91
1245953.36 4851979.29 30.88
1245956.43 4851979.40 23.74
1245953.09 4851979.94 29.78
1245952.99 4851980.07 29.64
1245952.91 4851980.20 29.47
1245952.83 4851980.33 29.32
1245955.22 4851980.43 23.72
1245952.74 4851980.47 29.15
1245952.68 4851980.59 28.95
1245954.28 4851981.20 23.74
1245952.74 4851982.50 23.72
1245951.49 4851982.57 26.35
1245951.34 4851982.69 26.33
1245951.33 4851982.83 26.00
1245951.68 4851982.85 25.15
1245951.49 4851982.98 25.24
1245951.31 4851983.10 25.31
1245951.11 4851983.24 25.42
1245951.00 4851983.35 25.33
1245951.32 4851983.52 24.16
1245950.64 4851983.62 25.43
1245951.34 4851983.66 23.75
1245950.47 4851983.74 25.50
1245951.70 4851984.10 21.79
1245952.15 4851984.19 22.13
1245950.89 4851983.96 25.54
1245951.07 4851983.84 25.47
1245951.94 4851983.76 23.75
1245951.41 4851983.59 25.38
1245951.79 4851983.61 24.48
1245951.71 4851983.46 25.04
1245951.78 4851983.32 25.25
1245951.43 4851983.17 26.45
1245953.01 4851982.85 23.77
1245951.77 4851982.50 27.47
1245951.94 4851982.24 27.81
1245952.29 4851981.59 28.77
1245952.42 4851981.46 28.82
1245952.54 4851981.33 28.90
1245954.73 4851981.43 23.73
1245954.89 4851981.30 23.72
1245953.20 4851980.02 30.91
1245953.42 4851979.63 31.47
1245956.74 4851979.75 23.77
1245958.90 4851978.96 21.58
1245954.54 4851979.11 30.92
1245953.79 4851979.21 32.29
1245953.74 4851979.35 32.07
1245953.33 4851979.86 31.60
1245956.71 4851979.97 23.76
1245953.17 4851980.25 30.94
1245953.03 4851980.37 30.90
1245954.86 4851981.53 23.75
1245954.71 4851981.66 23.71
1245952.27 4851981.81 28.78
1245952.14 4851981.94 28.71
1245951.84 4851982.47 28.00
1245951.59 4851982.86 27.49
1245951.61 4851983.13 26.73
1245951.61 4851983.27 26.35
1245951.67 4851983.41 25.87
1245951.87 4851983.56 25.00
1245951.90 4851983.70 24.57
1245952.09 4851983.85 23.74
1245952.37 4851984.15 22.32
1245952.61 4851984.03 23.75
1245952.28 4851983.87 24.93
1245952.39 4851983.73 25.05
1245952.43 4851983.59 25.30
1245952.14 4851983.44 26.37
1245953.24 4851983.51 23.73
1245952.01 4851983.29 27.06
1245951.97 4851983.16 27.49
1245951.82 4851982.89 28.58
1245951.91 4851982.75 28.72
1245954.48 4851982.47 23.73
1245954.62 4851982.35 23.76
1245952.39 4851981.96 29.75
1245952.80 4851981.18 30.93
1245953.06 4851980.78 31.39
1245953.26 4851980.40 31.99
1245953.36 4851980.27 32.12
1245956.94 4851980.39 23.80
1245953.49 4851980.14 32.16
1245953.79 4851979.49 33.23
1245953.94 4851979.36 33.24
1245954.51 4851979.39 31.92
1245955.09 4851979.27 30.94
1245955.99 4851979.30 28.87
1245957.23 4851979.19 26.36
1245958.10 4851979.21 24.37
1245958.64 4851979.22 23.12
1245959.49 4851979.11 21.52
1245958.09 4851978.82 25.46
1245957.38 4851979.24 26.36
1245958.34 4851979.27 24.15
1245958.73 4851979.28 23.25
1245955.24 4851979.32 30.94
1245956.13 4851979.34 28.87
1245959.35 4851979.42 21.47
1245953.87 4851979.54 33.40
1245957.45 4851979.64 25.15
1245953.79 4851979.66 33.24
1245953.74 4851979.80 33.00
1245953.65 4851979.93 32.88
1245953.54 4851980.05 32.77
1245953.35 4851980.44 32.16
1245956.96 4851980.56 23.78
1245953.23 4851980.57 32.10
1245953.10 4851980.82 31.70
1245952.69 4851981.47 30.91
1245955.58 4851981.73 23.74
1245952.28 4851982.25 29.75
1245954.49 4851982.63 23.77
1245954.37 4851982.76 23.72
1245951.92 4851982.77 29.14
1245951.92 4851982.91 28.81
1245951.91 4851983.04 28.46
1245952.33 4851983.48 26.37
1245953.28 4851983.66 23.73
1245952.41 4851983.89 25.07
1245952.13 4851984.00 25.39
1245952.82 4851984.05 23.74
1245951.95 4851984.14 25.45
1245952.31 4851984.45 25.51
1245953.40 4851984.39 23.26
1245952.67 4851984.20 25.40
1245953.35 4851984.24 23.77
1245952.84 4851984.07 25.36
1245953.52 4851984.11 23.72
1245954.12 4851983.59 23.76
1245952.66 4851983.38 27.63
1245952.50 4851983.09 28.74
1245952.27 4851982.55 30.73
1245952.34 4851982.41 30.90
1245952.47 4851982.29 30.96
1245952.60 4851982.02 31.36
1245952.70 4851981.90 31.48
1245952.80 4851981.77 31.60
1245956.15 4851981.91 23.74
1245952.90 4851981.64 31.71
1245953.00 4851981.38 32.19
1245953.02 4851981.24 32.50
1245957.24 4851980.99 23.74
1245953.65 4851980.22 33.85
1245959.07 4851980.24 21.67
1245959.07 4851980.10 22.05
1245954.00 4851979.71 34.44
1245954.96 4851979.60 32.57
1245955.69 4851979.62 30.89
1245958.46 4851979.42 25.25
1245959.16 4851978.93 25.47
1245959.03 4851979.05 25.42
1245958.88 4851979.18 25.39
1245958.75 4851979.32 25.35
1245958.60 4851979.44 25.35
1245958.00 4851979.56 26.35
1245958.49 4851979.57 25.23
1245955.21 4851979.63 32.42
1245955.87 4851979.64 30.90
1245958.05 4851979.96 25.17
1245958.69 4851979.99 23.70
1245953.89 4851979.98 34.44
1245958.93 4851980.26 22.43
1245958.92 4851980.39 22.08
1245953.64 4851980.36 33.98
1245957.28 4851981.14 23.75
1245953.01 4851981.38 32.63
1245952.90 4851981.64 32.19
1245952.79 4851981.78 32.11
1245956.35 4851981.92 23.75
1245952.65 4851982.17 31.36
1245952.56 4851982.29 31.23
1245952.45 4851982.43 31.11
1245952.36 4851982.56 30.99
1245952.29 4851982.69 30.78
1245952.27 4851982.82 30.48
1245952.45 4851982.96 29.71
1245952.56 4851983.23 28.71
1245952.80 4851983.39 27.78
1245952.94 4851983.80 26.35
1245954.03 4851983.87 23.74
1245953.88 4851983.99 23.73
1245953.58 4851984.25 23.74
1245953.52 4851984.39 23.51
1245954.04 4851984.63 23.39
1245954.02 4851984.50 23.80
1245953.83 4851984.35 24.62
1245954.18 4851984.38 23.76
1245954.36 4851984.24 23.75
1245954.49 4851984.10 23.79
1245953.57 4851983.92 26.36
1245953.25 4851983.50 28.21
1245953.15 4851983.36 28.79
1245953.06 4851983.09 29.73
1245952.74 4851982.80 31.19
1245952.64 4851982.54 32.15
1245953.59 4851980.86 34.49
1245953.75 4851980.60 34.84
1245958.54 4851980.73 23.76
1245953.84 4851980.47 34.98
1245953.93 4851980.34 35.11
1245958.48 4851980.47 24.60
1245954.02 4851980.22 35.27
1245954.11 4851980.09 35.40
1245954.14 4851979.96 35.67
1245959.08 4851979.67 25.38
1245959.21 4851979.55 25.43
1245959.43 4851979.53 25.48
1245959.31 4851979.66 25.43
1245959.15 4851979.79 25.45
1245954.63 4851979.95 35.13
1245955.78 4851979.97 32.47
1245954.12 4851980.07 35.92
1245954.01 4851980.19 35.84
1245958.37 4851980.30 25.82
1245958.31 4851980.43 25.62
1245958.34 4851980.57 25.19
1245958.31 4851980.70 24.88
1245953.74 4851980.83 34.75
1245953.67 4851980.96 34.58
1245958.35 4851981.10 23.73
1245953.51 4851981.09 34.59
1245953.48 4851981.21 34.31
1245953.40 4851981.33 34.16
1245953.32 4851981.46 34.02
1245953.21 4851981.59 33.90
1245957.57 4851981.75 23.76
1245957.08 4851982.14 23.81
1245952.79 4851982.23 33.16
1245952.74 4851982.36 32.90
1245952.71 4851982.49 32.64
1245952.80 4851982.63 32.06
1245952.94 4851982.76 31.38
1245952.98 4851982.90 30.94
1245953.19 4851983.17 29.72
1245953.39 4851983.46 28.55
1245954.96 4851983.95 23.74
1245953.70 4851984.01 26.35
1245954.79 4851984.07 23.75
1245953.90 4851984.16 25.51
1245954.63 4851984.21 23.76
1245953.86 4851984.29 25.27
1245954.12 4851984.59 23.89
1245954.28 4851984.73 23.14
1245954.99 4851985.08 22.45
1245954.76 4851984.79 23.74
1245954.61 4851984.64 24.46
1245954.58 4851984.37 25.28
1245954.28 4851984.21 26.35
1245953.88 4851983.52 29.11
1245953.57 4851983.10 30.92
1245956.62 4851983.24 23.75
1245953.39 4851982.96 31.68
1245956.76 4851983.11 23.76
1245953.36 4851982.82 32.12
1245956.92 4851982.97 23.74
1245953.12 4851982.55 33.38
1245953.06 4851982.29 34.24
1245953.13 4851982.16 34.42
1245957.85 4851982.20 23.74
1245953.43 4851981.64 35.12
1245958.06 4851981.80 24.38
1245958.16 4851981.66 24.51
1245957.85 4851981.26 26.31
1245958.27 4851981.27 25.32
1245957.97 4851981.13 26.36
1245958.55 4851981.00 25.41
1245957.78 4851980.85 27.54
1245958.83 4851980.75 25.45
1245954.30 4851980.24 36.93
1245955.54 4851980.15 34.40
1245957.62 4851980.19 29.67
1245957.15 4851980.05 31.10
1245955.96 4851978.23 38.58
1245956.01 4851978.31 38.79
1245955.86 4851978.44 38.79
1245957.33 4851980.12 31.03
1245955.66 4851980.21 34.51
1245956.38 4851980.23 32.87
1245954.32 4851980.31 37.26
1245954.70 4851980.32 36.37
1245957.44 4851980.51 29.74
1245957.55 4851980.64 29.14
1245954.09 4851980.69 36.75
1245957.56 4851980.78 28.75
1245954.00 4851980.82 36.61
1245957.68 4851981.04 27.77
1245957.84 4851981.45 26.34
1245953.39 4851981.83 35.28
1245953.23 4851982.09 34.96
1245957.99 4851982.25 23.86
1245953.17 4851982.22 34.72
1245953.16 4851982.35 34.39
1245953.35 4851982.48 33.63
1245953.24 4851982.61 33.53
1245953.55 4851982.63 32.80
1245957.41 4851982.78 23.77
1245953.55 4851982.89 32.10
1245953.54 4851983.02 31.78
1245953.74 4851983.16 30.92
1245954.11 4851983.58 28.99
1245954.47 4851984.27 26.34
1245954.75 4851984.70 24.60
1245954.95 4851984.85 23.74
1245955.85 4851985.58 21.56
1245955.82 4851985.44 22.00
1245954.50 4851985.23 25.52
1245955.55 4851985.01 23.75
1245955.06 4851984.85 25.29
1245955.31 4851984.73 25.08
1245955.07 4851984.44 26.36
1245954.69 4851984.01 28.33
1245957.65 4851983.74 22.47
1245957.72 4851983.61 22.67
1245954.35 4851983.33 30.94
1245954.22 4851983.20 31.59
1245957.58 4851983.33 23.73
1245954.13 4851983.05 32.17
1245957.65 4851983.06 24.27
1245953.80 4851982.64 34.00
1245953.74 4851982.51 34.47
1245957.40 4851982.51 26.33
1245957.82 4851982.53 25.35
1245953.51 4851982.25 35.71
1245957.53 4851982.38 26.37
1245953.50 4851982.12 36.09
1245953.54 4851981.99 36.34
1245953.68 4851981.72 36.74
1245957.13 4851981.83 28.75
1245953.78 4851981.60 36.83
1245957.22 4851981.70 28.90
1245957.08 4851981.57 29.55
1245953.91 4851981.35 37.22
1245957.16 4851981.44 29.71
1245957.28 4851981.31 29.82
1245954.09 4851980.97 37.84
1245957.10 4851981.04 30.91
1245954.21 4851980.84 37.90
1245957.02 4851980.90 31.47
1245954.22 4851980.71 38.23
1245957.05 4851980.64 32.08
1245954.35 4851980.47 38.59
1245956.85 4851980.38 33.23
1245954.61 4851979.95 39.40
1245954.74 4851979.83 39.41
1245955.02 4851979.58 39.45
1245955.04 4851979.45 39.75
1245955.18 4851979.34 39.78
1245955.34 4851979.21 39.76
1245955.80 4851978.96 39.37
1245955.90 4851978.84 39.50
1245955.93 4851978.08 41.44
1245956.12 4851977.96 41.34
1245955.97 4851978.14 41.70
1245955.90 4851979.01 39.55
1245954.99 4851979.62 39.96
1245954.82 4851979.75 40.01
1245954.79 4851979.88 39.75
1245954.70 4851980.00 39.61
1245954.59 4851980.12 39.52
1245954.47 4851980.25 39.47
1245954.34 4851980.38 39.42
1245954.31 4851980.49 39.14
1245954.74 4851980.51 38.15
1245956.69 4851980.68 33.35
1245954.19 4851980.87 38.41
1245956.94 4851980.94 32.11
1245954.12 4851981.13 37.91
1245956.84 4851981.20 31.65
1245953.99 4851981.26 37.84
1245957.01 4851981.33 30.91
1245953.87 4851981.52 37.43
1245957.10 4851981.86 29.30
1245953.61 4851981.89 37.01
1245957.08 4851982.00 28.97
1245953.59 4851982.02 36.69
1245953.64 4851982.28 35.91
1245953.87 4851982.41 35.04
1245953.95 4851982.55 34.50
1245957.44 4851982.67 26.36
1245953.96 4851982.68 34.14
1245954.33 4851983.08 32.24
1245957.46 4851983.34 24.54
1245954.44 4851983.48 30.90
1245957.49 4851983.62 23.74
1245954.71 4851983.77 29.56
1245954.86 4851983.90 28.85
1245957.57 4851984.16 22.08
1245957.48 4851984.30 21.94
1245955.16 4851984.59 26.33
1245955.46 4851984.75 25.27
1245955.49 4851984.89 24.82
1245955.64 4851985.16 23.74
1245955.95 4851985.45 22.26
1245956.01 4851985.60 21.76
1245956.75 4851986.06 20.67
1245956.68 4851985.78 21.57
1245956.39 4851985.49 22.99
1245956.24 4851985.34 23.73
1245956.15 4851985.20 24.30
1245957.31 4851985.27 21.57
1245955.89 4851984.91 25.66
1245955.75 4851984.78 26.35
1245956.39 4851984.67 25.20
1245955.61 4851984.49 27.39
1245957.16 4851984.57 23.74
1245955.63 4851984.36 27.72
1245957.12 4851984.29 24.57
1245955.50 4851984.09 28.73
1245957.09 4851984.16 25.00
1245955.27 4851983.94 29.64
1245957.13 4851984.02 25.27
1245955.24 4851983.81 30.06
1245955.03 4851983.67 30.92
1245956.98 4851983.75 26.34
1245957.13 4851983.62 26.36
1245954.97 4851983.40 31.78
1245954.77 4851983.26 32.59
1245956.80 4851983.33 27.86
1245956.86 4851983.20 28.07
1245956.86 4851982.93 28.81
1245954.51 4851982.72 34.60
1245954.15 4851982.32 36.48
1245954.17 4851982.19 36.80
1245956.71 4851982.27 30.91
1245956.84 4851982.14 30.98
1245953.91 4851981.93 38.08
1245953.81 4851981.79 38.65
1245956.58 4851981.86 32.26
1245956.65 4851981.74 32.47
1245953.93 4851981.55 39.08
1245953.93 4851981.42 39.41
1245954.06 4851981.29 39.45
1245956.38 4851981.21 34.46
1245954.20 4851980.91 40.16
1245956.31 4851980.95 35.31
1245954.26 4851980.78 40.34
1245955.53 4851980.82 37.46
1245956.38 4851980.83 35.51
1245955.15 4851980.68 38.66
1245954.32 4851980.54 40.88
1245954.73 4851980.55 39.94
1245954.37 4851980.42 41.10
1245955.85 4851979.80 39.43
1245955.88 4851979.67 39.71
1245955.97 4851979.56 39.84
1245955.31 4851979.05 42.66
1245955.45 4851978.92 42.66
1245955.72 4851978.68 42.73
1245955.87 4851978.55 42.70
1245955.91 4851978.69 42.76
1245955.64 4851978.94 42.72
1245955.40 4851979.06 42.95
1245955.34 4851979.18 42.76
1245955.21 4851979.31 42.70
1245955.07 4851979.43 42.68
1245954.94 4851979.55 42.66
1245954.79 4851979.68 42.65
1245955.88 4851979.80 39.88
1245955.93 4851979.94 39.43
1245954.37 4851980.42 41.63
1245954.29 4851980.66 41.14
1245955.03 4851980.67 39.46
1245954.30 4851980.78 40.79
1245955.63 4851980.81 37.75
1245954.06 4851981.16 40.33
1245956.34 4851981.21 35.12
1245956.25 4851981.34 34.96
1245956.29 4851981.47 34.53
1245954.00 4851981.54 39.46
1245956.26 4851981.59 34.27
1245953.87 4851981.67 39.40
1245953.81 4851981.79 39.21
1245953.85 4851981.93 38.77
1245954.05 4851982.05 37.98
1245956.55 4851982.12 32.21
1245954.35 4851982.19 36.95
1245956.38 4851982.24 32.25
1245954.33 4851982.32 36.67
1245956.66 4851982.52 30.93
1245956.51 4851982.64 30.90
1245954.59 4851982.85 34.65
1245956.80 4851983.18 28.83
1245954.98 4851983.25 32.72
1245956.69 4851983.31 28.75
1245955.07 4851983.38 32.16
1245955.17 4851983.51 31.58
1245955.42 4851983.80 30.26
1245957.09 4851983.86 26.35
1245955.49 4851983.93 29.75
1245956.95 4851983.99 26.34
1245955.63 4851984.20 28.71
1245956.99 4851984.26 25.52
1245955.80 4851984.34 27.97
1245957.01 4851984.40 25.13
1245955.84 4851984.48 27.49
1245957.10 4851984.54 24.53
1245955.84 4851984.62 27.13
1245957.05 4851984.67 24.28
1245956.08 4851984.90 25.86
1245956.98 4851984.94 23.72
1245956.27 4851985.04 25.05
1245957.20 4851985.08 22.84
1245956.63 4851985.75 22.35
1245956.84 4851985.90 21.50
1245956.51 4851985.33 25.36
1245956.66 4851985.19 25.38
1245956.57 4851985.06 25.97
1245956.50 4851984.91 26.48
1245956.36 4851984.63 27.54
1245957.27 4851984.68 25.42
1245956.19 4851984.36 28.66
1245956.46 4851984.23 28.40
1245956.01 4851984.08 29.79
1245956.42 4851984.10 28.85
1245955.71 4851983.94 30.84
1245956.34 4851983.57 30.45
1245956.28 4851983.30 31.30
1245955.22 4851983.01 34.44
1245956.22 4851983.04 32.14
1245954.82 4851982.47 36.76
1245956.04 4851982.51 33.95
1245953.81 4851982.31 39.45
1245954.64 4851982.21 37.88
1245955.94 4851982.24 34.89
1245954.09 4851982.07 39.49
1245954.44 4851982.07 38.68
1245953.87 4851981.94 40.33
1245953.83 4851981.81 40.76
1245953.90 4851981.69 40.92
1245955.83 4851981.59 36.88
1245955.82 4851981.47 37.22
1245954.08 4851981.18 41.90
1245955.84 4851981.21 37.87
1245954.18 4851981.06 41.98
1245954.22 4851980.80 42.59
1245955.64 4851980.83 39.35
1245954.34 4851980.57 42.96
1245954.95 4851980.57 41.57
1245954.40 4851980.44 43.15
1245954.36 4851980.32 43.57
1245955.90 4851980.33 40.10
1245954.54 4851980.19 43.51
1245954.68 4851980.07 43.51
1245955.49 4851979.70 42.69
1245955.95 4851979.32 42.68
1245955.96 4851979.20 42.96
1245955.93 4851978.34 45.33
1245955.77 4851978.46 45.86
1245955.89 4851979.43 42.97
1245955.88 4851979.55 42.68
1245955.59 4851979.80 42.68
1245954.40 4851980.40 43.74
1245954.60 4851980.53 42.94
1245954.22 4851980.77 43.16
1245955.37 4851980.79 40.53
1245954.13 4851981.02 42.68
1245955.73 4851981.30 38.34
1245954.10 4851981.40 41.75
1245954.05 4851981.52 41.54
1245955.66 4851981.55 37.84
1245953.90 4851981.77 41.19
1245955.75 4851981.80 36.95
1245953.85 4851981.90 40.98
1245954.17 4851982.02 39.90
1245953.86 4851982.15 40.29
1245954.56 4851982.16 38.66
1245953.85 4851982.41 39.63
1245954.85 4851982.43 37.31
1245955.83 4851982.46 35.08
1245955.11 4851982.69 36.05
1245956.07 4851982.71 33.83
1245955.99 4851982.84 33.67
1245955.18 4851982.95 35.19
1245955.37 4851983.09 34.42
1245955.97 4851983.10 33.03
1245956.07 4851983.36 32.09
1245956.19 4851983.77 30.74
1245955.92 4851983.89 31.02
1245955.85 4851984.02 30.85
1245956.33 4851984.04 29.72
1245956.12 4851984.16 29.85
1245956.18 4851984.30 29.36
1245956.27 4851984.43 28.80
1245956.33 4851984.57 28.30
1245956.41 4851984.70 27.75
1245957.38 4851984.75 25.47
1245956.50 4851985.52 25.39
1245956.61 4851986.07 25.52
1245953.83 4851983.18 39.45
1245953.81 4851983.06 39.85
1245955.32 4851982.46 38.05
1245954.92 4851982.31 39.33
1245954.65 4851982.19 40.30
1245953.75 4851982.04 42.68
1245954.28 4851982.05 41.47
1245953.88 4851981.92 42.75
1245953.91 4851981.80 43.00
1245954.19 4851981.67 42.68
1245955.63 4851981.69 39.41
1245953.95 4851981.55 43.58
1245954.36 4851981.55 42.66
1245955.77 4851981.57 39.44
1245954.06 4851981.42 43.65
1245955.62 4851981.44 40.12
1245955.81 4851981.19 40.35
1245955.84 4851981.06 40.62
1245955.81 4851980.94 41.03
1245954.31 4851980.81 44.77
1245955.47 4851980.81 42.13
1245955.05 4851980.68 43.42
1245955.37 4851980.69 42.70
1245954.68 4851980.56 44.57
1245954.37 4851980.44 45.61
1245954.37 4851980.32 45.95
1245954.49 4851980.19 46.00
1245954.72 4851979.94 46.14
1245954.83 4851979.82 46.21
1245954.91 4851979.70 46.36
1245955.02 4851979.58 46.46
1245955.16 4851979.45 46.45
1245955.97 4851979.03 46.20
1245955.93 4851979.15 45.96
1245955.36 4851979.64 45.97
1245954.94 4851979.76 46.58
1245954.77 4851979.88 46.64
1245954.60 4851980.00 46.69
1245955.95 4851980.13 43.32
1245954.46 4851980.37 46.05
1245955.94 4851980.38 42.69
1245954.34 4851980.49 45.97
1245954.27 4851980.61 45.79
1245954.78 4851980.62 44.66
1245954.23 4851980.72 45.58
1245955.15 4851980.74 43.49
1245955.52 4851980.74 42.67
1245954.14 4851980.85 45.43
1245955.57 4851980.87 42.22
1245954.20 4851980.97 44.97
1245955.84 4851980.99 41.26
1245955.83 4851981.11 40.96
1245955.77 4851981.24 40.78
1245955.69 4851981.36 40.59
1245954.06 4851981.47 43.99
1245954.65 4851981.47 42.66
1245955.68 4851981.49 40.32
1245954.49 4851981.60 42.68
1245953.93 4851981.71 43.61
1245953.88 4851981.84 43.39
1245955.62 4851981.87 39.43
1245953.99 4851981.97 42.83
1245953.86 4851982.09 42.78
1245954.38 4851982.10 41.59
1245955.46 4851982.12 39.12
1245953.76 4851982.20 42.68
1245954.75 4851982.23 40.42
1245955.07 4851982.36 39.34
1245953.82 4851983.22 39.84
1245953.85 4851983.35 39.45
1245953.71 4851983.47 39.42
1245957.26 4851985.72 25.51
1245953.92 4851984.20 38.89
1245953.83 4851984.07 39.43
1245953.99 4851983.94 39.41
1245954.41 4851983.57 39.46
1245954.56 4851983.46 39.45
1245954.72 4851983.33 39.42
1245954.87 4851983.20 39.45
1245954.92 4851983.08 39.63
1245953.75 4851982.92 42.66
1245955.08 4851982.96 39.61
1245953.82 4851982.80 42.84
1245955.02 4851982.83 40.12
1245953.87 4851982.55 43.40
1245955.25 4851982.57 40.25
1245955.35 4851982.45 40.36
1245954.78 4851982.31 42.01
1245955.14 4851982.32 41.18
1245954.62 4851982.19 42.70
1245955.42 4851982.20 40.88
1245954.39 4851982.06 43.54
1245953.87 4851981.93 45.08
1245953.82 4851981.80 45.52
1245955.51 4851981.83 41.67
1245955.56 4851981.70 41.89
1245954.04 4851981.43 46.00
1245955.74 4851981.45 42.17
1245954.02 4851981.31 46.37
1245955.81 4851981.32 42.32
1245954.09 4851981.06 46.88
1245955.86 4851981.07 42.90
1245955.81 4851980.83 43.67
1245955.27 4851980.70 45.21
1245954.48 4851980.58 47.32
1245955.07 4851980.58 45.98
1245955.83 4851979.97 45.91
1245955.95 4851979.86 45.96
1245955.90 4851979.72 46.42
1245955.91 4851979.86 46.44
1245955.98 4851979.99 45.98
1245954.67 4851980.58 47.30
1245955.07 4851980.58 46.39
1245955.12 4851980.71 45.96
1245955.60 4851980.84 44.55
1245955.84 4851980.95 43.68
1245954.69 4851981.07 45.96
1245954.12 4851981.19 46.92
1245955.81 4851981.20 43.11
1245953.97 4851981.31 46.92
1245955.83 4851981.32 42.70
1245954.05 4851981.44 46.40
1245955.69 4851981.45 42.70
1245953.98 4851981.56 46.27
1245953.93 4851981.68 46.03
1245953.83 4851981.80 45.94
1245955.57 4851981.82 41.99
1245953.89 4851981.92 45.49
1245955.59 4851981.94 41.61
1245955.28 4851982.44 41.00
1245953.82 4851982.91 42.98
1245955.06 4851982.94 40.14
1245954.83 4851983.18 40.00
1245954.72 4851983.31 39.92
1245954.60 4851983.44 39.86
1245954.49 4851983.55 39.77
1245954.44 4851983.68 39.53
1245954.33 4851983.81 39.45
1245954.20 4851983.93 39.43
1245954.05 4851984.05 39.41
1245953.89 4851984.18 39.47
1245953.78 4851984.31 39.37
1245953.86 4851984.08 41.86
1245953.83 4851983.70 42.93
1245954.54 4851983.20 42.66
1245955.12 4851982.72 42.70
1245953.82 4851982.58 45.98
1245955.25 4851982.60 42.71
1245953.85 4851982.46 46.23
1245955.39 4851982.48 42.72
1245953.79 4851982.32 46.71
1245955.04 4851982.35 43.89
1245953.89 4851982.21 46.81
1245954.63 4851982.22 45.14
1245954.41 4851982.09 45.96
1245955.45 4851982.10 43.61
1245954.14 4851981.96 46.92
1245955.48 4851981.98 43.88
1245954.06 4851981.84 47.41
1245955.00 4851981.60 45.96
1245955.79 4851980.99 45.81
1245955.06 4851980.86 47.76
1245955.87 4851980.87 45.96
1245955.59 4851980.75 46.93
1245956.00 4851980.75 45.99
1245955.83 4851980.62 46.71
1245955.96 4851980.51 46.75
1245955.90 4851980.73 46.80
1245955.23 4851980.85 47.97
1245955.72 4851980.85 46.88
1245954.76 4851980.97 48.68
1245955.86 4851980.97 46.22
1245955.83 4851981.09 45.97
1245955.73 4851981.34 45.53
1245955.66 4851981.46 45.38
1245955.63 4851981.58 45.12
1245954.19 4851981.81 47.73
1245954.27 4851982.06 46.87
1245954.54 4851982.18 45.95
1245955.35 4851982.31 43.78
1245955.30 4851982.44 43.57
1245953.81 4851982.55 46.62
1245953.83 4851982.67 46.25
1245953.81 4851982.79 45.96
1245955.04 4851982.94 42.82
1245954.94 4851983.05 42.72
1245954.82 4851983.17 42.70
1245954.67 4851983.30 42.67
1245953.79 4851984.04 42.68
1245953.90 4851984.16 42.11
1245953.89 4851983.93 44.69
1245954.10 4851983.81 44.54
1245953.79 4851983.56 45.92
1245953.88 4851983.31 46.37
1245954.36 4851983.07 45.95
1245955.17 4851982.47 45.73
1245955.16 4851982.35 46.10
1245954.94 4851982.21 46.94
1245955.38 4851982.22 45.93
1245954.78 4851982.10 47.61
1245955.51 4851982.10 45.96
1245955.55 4851981.86 46.54
1245955.57 4851981.74 46.79
1245955.00 4851981.24 49.39
1245954.96 4851981.45 49.39
1245954.83 4851981.57 49.39
1245954.75 4851981.69 49.23
1245955.40 4851981.69 47.77
1245955.21 4851981.81 47.86
1245955.63 4851981.81 46.92
1245955.53 4851981.93 46.85
1245955.48 4851982.05 46.65
1245954.99 4851982.16 47.42
1245955.06 4851982.30 46.92
1245955.48 4851982.30 45.97
1245955.32 4851982.41 46.01
1245954.49 4851983.14 45.94
1245953.81 4851983.63 46.15
1245953.78 4851983.75 45.92
1245953.91 4851984.00 44.95
1245953.88 4851984.36 45.92
1245954.00 4851984.24 46.01
1245954.10 4851984.11 46.10
1245954.21 4851984.00 46.17
1245954.34 4851983.87 46.23
1245959.75 4851979.13 20.28
1245959.68 4851979.18 20.43
1245959.34 4851980.03 21.07
1245959.31 4851979.57 21.53
1245959.36 4851979.32 22.01
1245959.31 4851979.33 22.26
1245959.24 4851979.68 21.59
1245959.27 4851979.84 21.47
1245959.28 4851980.00 21.34
1245958.87 4851980.82 21.88
1245958.87 4851980.08 22.76
1245958.87 4851979.94 22.97
1245958.91 4851979.83 23.21
1245958.96 4851979.58 23.72
1245958.94 4851979.42 23.83
1245959.42 4851979.58 25.49
1245959.23 4851978.98 25.50
1245959.16 4851979.01 25.48
1245959.34 4851979.59 25.49
1245959.41 4851979.79 25.51
1245958.90 4851979.45 23.94
1245958.93 4851979.75 23.69
1245958.84 4851980.93 21.92
1245958.53 4851980.73 23.73
1245958.59 4851980.34 24.41
1245958.82 4851980.27 25.38
1245958.63 4851979.96 25.06
1245958.65 4851979.82 25.27
1245958.62 4851979.65 25.38
1245958.54 4851979.43 25.31
1245958.41 4851979.31 25.35
1245958.46 4851979.50 25.32
1245958.52 4851979.68 25.30
1245958.57 4851979.87 25.28
1245958.55 4851979.99 25.05
1245958.53 4851980.38 24.47
1245958.45 4851980.73 23.77
1245958.50 4851980.90 23.71
1245958.42 4851981.54 22.64
1245958.03 4851982.36 23.52
1245958.03 4851982.22 23.72
1245958.08 4851982.12 24.01
1245958.08 4851981.97 24.19
1245958.50 4851982.21 25.49
1245958.07 4851981.82 24.34
1245958.08 4851981.11 25.28
1245958.00 4851980.89 25.23
1245958.21 4851980.65 26.33
1245958.16 4851980.46 26.36
1245958.21 4851980.21 26.84
1245958.21 4851979.94 27.21
1245957.41 4851979.18 25.04
1245956.92 4851978.73 23.75
1245957.83 4851979.44 26.35
1245957.18 4851978.36 25.51
1245958.18 4851979.83 27.51
1245957.74 4851979.43 26.36
1245958.18 4851979.97 27.35
1245957.33 4851979.18 25.07
1245956.83 4851978.72 23.74
1245958.14 4851980.21 26.92
1245958.12 4851980.61 26.36
1245958.17 4851980.79 26.33
1245957.96 4851981.01 25.25
1245958.18 4851981.63 25.34
1245958.01 4851982.17 24.03
1245957.98 4851982.30 23.80
1245958.00 4851982.45 23.66
1245957.49 4851985.03 21.34
1245957.49 4851984.88 21.52
1245957.50 4851984.73 21.72
1245957.50 4851984.59 21.92
1245957.59 4851983.35 23.75
1245957.65 4851983.13 24.29
1245957.41 4851982.76 23.80
1245957.87 4851982.89 25.42
1245957.26 4851982.33 23.76
1245957.77 4851982.67 25.34
1245957.70 4851982.44 25.31
1245957.64 4851982.24 25.32
1245957.77 4851981.78 26.36
1245957.77 4851980.79 27.61
1245956.16 4851978.85 23.79
1245956.63 4851979.14 25.23
1245956.08 4851978.63 23.76
1245957.86 4851980.16 28.70
1245956.01 4851978.43 23.74
1245957.85 4851980.01 28.87
1245956.29 4851978.24 25.44
1245957.81 4851980.07 29.02
1245957.23 4851979.53 27.48
1245957.81 4851980.20 28.83
1245955.91 4851978.42 23.75
1245957.79 4851980.33 28.64
1245956.57 4851979.31 25.17
1245957.75 4851980.97 27.67
1245957.69 4851981.88 26.35
1245957.65 4851982.40 25.58
1245957.60 4851982.49 25.27
1245957.11 4851982.19 23.78
1245957.92 4851983.34 25.45
1245957.31 4851982.79 23.81
1245957.58 4851983.18 24.38
1245957.54 4851983.57 23.74
1245957.43 4851984.74 21.89
1245957.43 4851984.89 21.73
1245957.46 4851985.06 21.64
1245957.41 4851985.29 21.14
1245957.41 4851985.44 20.99
1245956.70 4851986.05 20.73
1245956.87 4851985.91 21.57
1245957.05 4851985.78 22.43
1245957.13 4851984.96 23.72
1245957.08 4851984.77 23.74
1245957.19 4851984.58 24.41
1245957.17 4851984.41 24.51
1245957.15 4851984.25 24.65
1245957.27 4851984.21 25.15
1245957.21 4851984.01 25.15
1245956.59 4851983.16 23.83
1245957.05 4851983.43 25.27
1245957.26 4851983.18 26.36
1245956.16 4851981.88 23.73
1245957.33 4851981.67 28.47
1245955.49 4851979.81 23.70
1245957.34 4851981.40 28.86
1245957.39 4851981.02 29.52
1245957.41 4851980.89 29.74
1245954.97 4851978.17 23.72
1245956.54 4851979.51 28.10
1245955.17 4851978.21 24.43
1245957.46 4851980.23 30.74
1245957.39 4851980.14 31.00
1245957.42 4851980.30 30.91
1245957.40 4851980.55 30.52
1245955.05 4851978.76 23.75
1245957.34 4851981.05 29.73
1245957.34 4851981.18 29.57
1245957.27 4851981.53 28.86
1245955.41 4851979.93 23.70
1245957.27 4851981.80 28.55
1245956.04 4851981.92 23.73
1245957.19 4851983.39 26.35
1245956.99 4851983.63 25.26
1245956.49 4851983.30 23.74
1245957.11 4851984.16 25.09
1245957.23 4851984.40 25.23
1245957.06 4851984.54 24.46
1245957.51 4851985.08 25.51
1245957.08 4851984.69 24.34
1245957.10 4851984.85 24.21
1245957.00 4851984.91 23.76
1245957.04 4851985.09 23.71
1245957.03 4851985.36 23.35
1245956.98 4851985.75 22.70
1245956.95 4851985.87 22.43
1245956.74 4851985.96 21.51
1245956.58 4851985.96 20.88
1245955.92 4851985.55 21.69
1245956.40 4851985.39 23.74
1245956.47 4851985.32 24.09
1245956.66 4851985.34 24.80
1245956.72 4851985.24 25.12
1245956.74 4851985.12 25.36
1245956.78 4851984.72 25.99
1245956.83 4851984.62 26.31
1245956.80 4851984.44 26.37
1245955.83 4851983.57 23.75
1245956.85 4851983.48 27.75
1245956.84 4851983.33 27.91
1245956.83 4851983.18 28.05
1245956.93 4851982.84 28.83
1245955.03 4851981.08 23.71
1245956.89 4851982.66 28.89
1245957.06 4851981.55 30.91
1245954.39 4851979.03 23.75
1245957.01 4851981.34 30.94
1245957.02 4851980.93 31.48
1245957.07 4851980.56 32.12
1245955.81 4851979.38 28.79
1245954.42 4851978.06 25.08
1245957.09 4851980.45 32.34
1245955.85 4851979.26 29.02
1245956.70 4851979.93 31.49
1245954.41 4851977.76 25.38
1245957.05 4851980.35 32.66
1245956.62 4851979.95 31.51
1245957.04 4851980.48 32.48
1245955.73 4851979.25 28.99
1245956.99 4851981.11 31.54
1245957.00 4851981.65 30.92
1245954.33 4851979.15 23.75
1245956.85 4851982.88 28.85
1245956.88 4851983.05 28.80
1245954.97 4851981.29 23.64
1245955.07 4851981.52 23.74
1245956.76 4851983.49 27.79
1245956.77 4851983.64 27.64
1245956.77 4851983.78 27.52
1245956.78 4851983.93 27.35
1245955.73 4851983.53 23.84
1245956.72 4851984.58 26.37
1245955.74 4851983.70 23.71
1245956.78 4851984.77 26.34
1245956.52 4851984.81 25.28
1245956.69 4851985.10 25.58
1245956.66 4851985.22 25.32
1245956.74 4851985.44 25.40
1245955.79 4851985.44 21.78
1245955.79 4851985.58 21.60
1245954.96 4851985.08 22.48
1245955.22 4851984.87 23.75
1245955.54 4851984.87 24.98
1245955.64 4851984.81 25.39
1245954.95 4851984.05 23.73
1245955.87 4851984.72 26.37
1245956.02 4851984.72 26.96
1245956.32 4851984.56 28.31
1245956.38 4851984.46 28.62
1245956.46 4851983.82 29.71
1245956.42 4851983.64 29.76
1245956.45 4851983.39 30.22
1245954.04 4851981.16 23.72
1245956.52 4851983.02 30.91
1245953.52 4851979.51 23.74
1245956.59 4851982.25 32.12
1245956.57 4851982.08 32.23
1245956.54 4851981.91 32.33
1245952.34 4851977.82 21.29
1245952.39 4851977.72 21.61
1245952.52 4851977.70 22.13
1245952.81 4851977.54 23.42
1245953.28 4851977.70 25.04
1245952.99 4851977.42 24.25
1245954.96 4851979.15 29.65
1245953.32 4851977.59 25.29
1245956.65 4851980.61 34.34
1245953.22 4851977.21 25.39
1245953.17 4851977.02 25.43
1245953.13 4851976.84 25.49
1245953.06 4851976.91 25.50
1245953.11 4851977.08 25.44
1245956.57 4851980.51 34.46
1245956.29 4851980.25 33.75
1245953.15 4851977.26 25.40
1245956.61 4851980.69 34.43
1245955.89 4851980.00 32.51
1245954.89 4851979.18 29.68
1245954.55 4851978.85 28.77
1245953.21 4851977.72 25.07
1245952.82 4851977.49 23.86
1245953.36 4851978.15 25.15
1245952.80 4851977.61 23.67
1245952.69 4851977.65 23.18
1245952.65 4851977.75 22.91
1245952.44 4851977.82 22.02
1245952.36 4851977.89 21.64
1245952.33 4851978.01 21.39
1245956.47 4851982.03 32.28
1245956.49 4851982.18 32.18
1245956.51 4851982.34 32.08
1245956.54 4851982.49 31.98
1245956.45 4851983.09 30.93
1245956.40 4851983.46 30.31
1245953.95 4851981.20 23.73
1245956.37 4851983.84 29.74
1245956.35 4851984.37 28.99
1245956.31 4851984.48 28.72
1245956.02 4851984.63 27.46
1245955.93 4851984.69 27.06
1245955.31 4851984.27 25.20
1245955.80 4851984.84 26.34
1245954.86 4851983.99 23.81
1245955.46 4851984.82 25.10
1245955.43 4851984.93 24.85
1245955.14 4851984.95 23.73
1245955.86 4851985.75 25.51
1245954.89 4851985.16 22.51
1245954.25 4851984.76 23.17
1245954.39 4851984.74 23.74
1245954.26 4851984.33 23.75
1245954.11 4851983.89 23.69
1245954.98 4851984.40 26.40
1245955.30 4851984.27 27.79
1245955.51 4851984.17 28.72
1245955.62 4851984.13 29.19
1245955.76 4851984.12 29.74
1245956.05 4851983.95 31.02
1245956.10 4851983.85 31.32
1245953.14 4851980.84 23.75
1245956.12 4851983.31 32.08
1245952.82 4851979.80 23.75
1245956.13 4851982.75 32.77
1245952.12 4851978.86 22.24
1245952.47 4851978.75 23.71
1245952.43 4851978.56 23.74
1245952.59 4851978.43 24.55
1245956.24 4851981.74 34.44
1245956.28 4851981.63 34.70
1245956.28 4851981.50 34.87
1245956.27 4851981.35 35.01
1245953.02 4851978.26 26.37
1245956.27 4851981.20 35.16
1245953.27 4851978.21 27.39
1245954.89 4851979.60 31.83
1245954.29 4851979.04 30.26
1245953.69 4851978.47 28.68
1245956.32 4851980.83 35.80
1245955.08 4851979.64 32.51
1245956.25 4851980.62 35.79
1245956.10 4851978.17 38.21
1245956.04 4851978.09 38.36
1245956.09 4851978.27 38.34
1245956.28 4851980.80 36.03
1245956.25 4851980.88 35.79
1245954.95 4851979.65 32.34
1245954.40 4851979.13 30.89
1245953.60 4851978.50 28.62
1245953.24 4851978.27 27.47
1245952.97 4851978.30 26.44
1245956.20 4851981.50 34.88
1245952.98 4851978.46 26.33
1245956.21 4851981.64 34.74
1245956.22 4851981.79 34.61
1245956.24 4851981.94 34.48
1245952.68 4851978.58 25.02
1245956.24 4851982.08 34.33
1245952.60 4851978.64 24.62
1245952.40 4851978.72 23.75
1245952.44 4851978.91 23.72
1245952.13 4851979.03 22.37
1245956.10 4851982.89 32.86
1245952.77 4851979.91 23.75
1245956.06 4851983.39 32.09
1245956.08 4851983.68 31.82
1245953.08 4851980.89 23.75
1245956.05 4851983.80 31.57
1245956.00 4851983.88 31.27
1245955.94 4851983.96 30.92
1245955.64 4851983.95 29.79
1245955.55 4851984.15 29.22
1245955.43 4851984.19 28.75
1245955.21 4851984.25 27.82
1245954.18 4851984.30 23.84
1245954.38 4851984.62 24.23
1245954.26 4851984.66 23.73
1245954.16 4851984.71 23.27
1245953.12 4851984.39 22.99
1245953.90 4851984.81 25.46
1245953.35 4851984.31 23.95
1245953.91 4851984.09 26.35
1245952.68 4851982.38 23.74
1245954.44 4851983.84 28.65
1245952.62 4851982.16 23.76
1245954.47 4851983.73 28.91
1245952.55 4851981.96 23.75
1245954.59 4851983.71 29.41
1245952.49 4851981.76 23.76
1245952.42 4851981.56 23.77
1245954.97 4851983.62 30.91
1245955.11 4851983.47 31.66
1245955.23 4851983.43 32.14
1245952.09 4851980.51 23.74
1245951.94 4851980.22 23.50
1245955.53 4851983.29 33.46
1245952.00 4851980.00 24.04
1245955.75 4851983.21 34.37
1245955.77 4851983.10 34.60
1245952.48 4851979.58 26.37
1245952.07 4851979.05 25.44
1245953.05 4851979.40 28.74
1245953.23 4851979.43 29.38
1245953.29 4851979.35 29.71
1245955.87 4851981.66 36.71
1245953.55 4851979.16 30.92
1245953.59 4851979.05 31.19
1245955.93 4851980.89 37.87
1245956.01 4851979.88 39.40
1245955.95 4851979.68 39.41
1245955.91 4851979.50 39.47
1245955.95 4851979.41 39.74
1245955.69 4851978.89 39.37
1245955.68 4851978.74 39.52
1245956.05 4851978.18 41.63
1245956.02 4851978.24 41.77
1245955.62 4851979.00 39.38
1245955.91 4851979.52 39.81
1245955.96 4851979.70 39.77
1245955.90 4851979.77 39.49
1245955.93 4851979.93 39.42
1245955.99 4851980.11 39.40
1245956.04 4851980.30 39.40
1245955.89 4851980.94 38.08
1245955.88 4851981.18 37.71
1245954.26 4851979.64 33.47
1245955.86 4851981.29 37.51
1245953.79 4851979.32 32.05
1245955.85 4851981.42 37.35
1245953.51 4851979.17 31.14
1245955.85 4851981.81 36.85
1245953.38 4851979.45 30.30
1245953.18 4851979.53 29.46
1245953.04 4851979.68 28.76
1245952.92 4851979.84 28.11
1245955.75 4851982.77 35.32
1245952.44 4851979.80 26.34
1245955.73 4851983.02 34.97
1245955.71 4851983.14 34.74
1245955.65 4851983.21 34.40
1245955.43 4851983.29 33.52
1245951.91 4851980.12 23.95
1245955.34 4851983.46 32.94
1245951.91 4851980.26 23.76
1245955.09 4851983.37 32.12
1245951.96 4851980.46 23.74
1245954.83 4851983.53 30.92
1245952.15 4851981.05 23.75
1245952.21 4851981.25 23.74
1245952.27 4851981.44 23.74
1245952.33 4851981.64 23.74
1245954.34 4851983.77 28.79
1245953.80 4851984.11 26.34
1245953.70 4851984.58 25.40
1245953.28 4851984.20 24.27
1245953.76 4851984.79 25.41
1245953.16 4851984.23 23.76
1245953.86 4851985.01 25.50
1245952.95 4851984.34 22.89
1245951.83 4851984.17 21.79
1245952.28 4851983.98 23.72
1245952.56 4851983.81 25.00
1245952.60 4851983.70 25.28
1245952.93 4851983.84 26.33
1245952.88 4851983.66 26.38
1245951.18 4851981.66 22.34
1245953.31 4851983.47 28.23
1245953.47 4851983.48 28.83
1245951.49 4851981.51 23.72
1245951.93 4851981.63 25.25
1245954.24 4851983.06 32.27
1245954.86 4851982.79 34.93
1245955.13 4851982.63 36.15
1245955.28 4851982.63 36.72
1245953.08 4851980.55 30.89
1245955.43 4851982.51 37.45
1245955.46 4851982.38 37.67
1245953.34 4851980.38 32.10
1245955.47 4851982.27 37.89
1245953.48 4851980.36 32.61
1245955.53 4851982.18 38.21
1245955.53 4851982.03 38.35
1245953.74 4851980.20 33.81
1245955.56 4851981.80 38.79
1245955.68 4851981.63 39.42
1245954.12 4851980.14 35.32
1245954.14 4851980.01 35.50
1245955.77 4851981.45 40.00
1245954.54 4851980.27 36.73
1245955.23 4851980.79 38.72
1245955.79 4851981.19 40.36
1245955.84 4851981.10 40.66
1245955.54 4851980.82 39.87
1245955.90 4851981.04 40.99
1245955.90 4851980.90 41.12
1245955.05 4851979.67 39.39
1245955.01 4851979.50 39.45
1245955.11 4851979.45 39.88
1245955.99 4851979.92 42.67
1245955.94 4851979.74 42.70
1245955.91 4851979.57 42.78
1245955.96 4851979.49 43.06
1245955.88 4851979.27 43.00
1245955.68 4851978.95 42.65
1245955.66 4851978.80 42.74
1245956.05 4851978.28 44.89
1245956.02 4851978.10 44.94
1245956.02 4851978.30 45.03
1245955.59 4851978.85 42.70
1245955.91 4851979.54 43.10
1245955.97 4851979.74 43.12
1245955.95 4851979.85 42.92
1245955.92 4851979.93 42.69
1245955.98 4851980.13 42.69
1245956.03 4851980.30 42.68
1245955.04 4851979.46 39.93
1245955.05 4851979.59 39.78
1245954.97 4851979.64 39.42
1245955.90 4851980.94 41.43
1245955.86 4851981.02 41.17
1245955.85 4851981.14 40.97
1245955.49 4851980.80 40.04
1245955.85 4851981.26 40.81
1245955.31 4851980.75 39.41
1245955.76 4851981.31 40.44
1245955.09 4851980.67 38.68
1245954.21 4851980.09 36.07
1245955.62 4851981.71 39.46
1245954.05 4851980.20 35.30
1245955.66 4851981.87 39.41
1245955.52 4851981.87 38.89
1245953.85 4851980.26 34.45
1245953.69 4851980.25 33.89
1245955.44 4851982.19 38.21
1245955.45 4851982.33 38.06
1245955.42 4851982.42 37.82
1245955.18 4851982.60 36.74
1245953.00 4851980.53 30.94
1245955.05 4851982.62 36.23
1245953.07 4851980.72 30.94
1245954.64 4851982.89 34.33
1245952.61 4851980.97 28.92
1245952.56 4851981.06 28.62
1245951.44 4851980.15 25.48
1245954.14 4851982.96 32.37
1245954.13 4851983.08 32.16
1245952.00 4851981.24 26.33
1245951.68 4851981.07 25.29
1245953.84 4851983.23 30.91
1245951.63 4851981.45 24.67
1245953.53 4851983.35 29.60
1245953.37 4851983.48 28.81
1245951.46 4851981.71 23.70
1245953.16 4851983.42 28.10
1245951.09 4851981.80 22.20
1245952.77 4851983.62 26.40
1245952.48 4851983.64 25.29
1245952.48 4851983.77 25.10
1245952.15 4851983.91 23.73
1245951.71 4851984.08 21.85
1245950.79 4851983.89 21.56
1245950.93 4851983.72 22.27
1245951.14 4851983.76 23.01
1245950.36 4851983.06 20.94
1245951.14 4851983.62 23.19
1245950.53 4851983.07 21.57
1245951.28 4851983.60 23.73
1245951.39 4851983.56 24.22
1245950.84 4851982.90 22.92
1245951.57 4851983.42 25.03
1245951.92 4851983.45 26.32
1245951.51 4851983.09 25.26
1245951.47 4851982.90 25.29
1245951.11 4851982.56 24.32
1245952.03 4851983.27 26.98
1245951.31 4851982.60 25.03
1245952.15 4851983.24 27.48
1245952.27 4851983.20 27.97
1245951.41 4851982.40 25.67
1245951.59 4851982.43 26.33
1245952.42 4851983.05 28.70
1245951.55 4851982.24 26.37
1245951.16 4851981.89 25.36
1245952.68 4851983.00 29.74
1245951.89 4851982.27 27.64
1245952.84 4851983.01 30.35
1245952.98 4851982.99 30.87
1245952.16 4851982.23 28.70
1245953.08 4851982.81 31.50
1245952.26 4851982.04 29.31
1245952.36 4851981.99 29.76
1245953.19 4851982.63 32.13
1245952.47 4851981.95 30.22
1245953.41 4851982.69 32.86
1245953.38 4851982.52 32.97
1245952.61 4851981.79 30.92
1245953.76 4851982.46 34.50
1245952.87 4851981.63 32.13
1245953.89 4851982.45 35.02
1245953.05 4851981.64 32.77
1245953.87 4851982.29 35.12
1245953.33 4851981.63 33.87
1245953.33 4851981.49 34.02
1245955.18 4851982.83 39.41
1245955.18 4851982.69 39.58
1245954.84 4851982.23 38.84
1245955.32 4851982.56 40.29
1245953.97 4851981.28 36.71
1245955.29 4851982.39 40.36
1245953.99 4851981.14 36.92
1245955.41 4851982.38 40.83
1245955.46 4851982.29 41.13
1245955.49 4851982.05 41.53
1245954.26 4851980.86 38.31
1245955.57 4851981.85 42.07
1245954.42 4851980.60 39.20
1245955.65 4851981.52 42.75
1245954.42 4851980.33 39.51
1245954.79 4851980.56 40.66
1245955.79 4851981.25 43.61
1245955.12 4851980.61 41.87
1245955.83 4851981.15 43.87
1245955.37 4851980.71 42.68
1245955.62 4851980.82 43.47
1245955.89 4851980.97 44.36
1245955.02 4851979.57 42.70
1245955.11 4851979.53 43.09
1245956.02 4851980.04 45.94
1245955.97 4851979.86 45.96
1245955.92 4851979.66 45.98
1245955.94 4851979.56 46.18
1245955.92 4851979.42 46.32
1245955.66 4851978.90 45.92
1245955.66 4851978.77 46.08
1245955.58 4851978.80 46.18
1245955.56 4851978.90 45.97
1245955.90 4851979.61 46.43
1245955.96 4851979.92 46.31
1245955.96 4851980.04 46.15
1245955.95 4851980.17 45.99
1245955.99 4851980.32 45.96
1245956.05 4851980.50 45.95
1245955.03 4851979.63 43.15
1245954.92 4851979.64 42.70
1245955.86 4851980.94 44.75
1245955.67 4851980.88 44.08
1245955.78 4851981.11 44.23
1245955.44 4851980.77 43.32
1245955.79 4851981.24 44.09
1245955.23 4851980.70 42.62
1245955.77 4851981.36 43.91
1245955.02 4851980.62 41.94
1245955.72 4851981.43 43.62
1245954.89 4851980.63 41.45
1245955.73 4851981.57 43.48
1245955.41 4851981.25 42.64
1245954.43 4851980.44 39.94
1245954.36 4851980.51 39.62
1245955.60 4851981.83 42.70
1245954.35 4851980.62 39.42
1245955.65 4851982.00 42.67
1245954.31 4851980.72 39.16
1245955.53 4851982.02 42.20
1245954.31 4851980.85 39.02
1245954.32 4851980.98 38.87
1245954.22 4851981.01 38.46
1245955.46 4851982.33 41.56
1245955.40 4851982.40 41.25
1245955.33 4851982.47 40.93
1245954.88 4851982.30 39.42
1245953.90 4851981.37 36.83
1245954.41 4851982.11 37.87
1245953.82 4851981.55 36.32
1245955.10 4851983.03 39.39
1245953.42 4851981.43 34.95
1245954.05 4851982.29 36.29
1245953.35 4851981.64 34.47
1245953.75 4851982.28 35.20
1245953.21 4851981.77 33.75
1245953.22 4851981.91 33.63
1245953.00 4851981.83 32.87
1245953.43 4851982.52 33.71
1245952.82 4851981.95 32.10
1245953.26 4851982.63 32.95
1245952.66 4851982.07 31.37
1245952.58 4851982.12 30.98
1245953.06 4851982.71 32.08
1245952.89 4851982.82 31.32
1245952.30 4851982.27 29.73
1245952.79 4851982.87 30.91
1245952.13 4851982.24 29.12
1245952.07 4851982.47 28.66
1245952.53 4851983.03 29.72
1245951.92 4851982.47 28.09
1245952.30 4851982.96 28.94
1245952.14 4851983.08 28.19
1245951.65 4851982.63 26.86
1245951.52 4851982.64 26.34
1245952.00 4851983.24 27.50
1245951.40 4851982.68 25.88
1245951.81 4851983.21 26.81
1245951.65 4851983.33 26.05
1245951.41 4851983.25 25.24
1245950.99 4851982.86 24.11
1245951.40 4851983.38 25.04
1245950.96 4851982.97 23.85
1245950.96 4851983.12 23.72
1245951.10 4851983.54 23.74
1245951.01 4851983.60 23.33
1245950.78 4851983.67 22.37
1245950.45 4851983.37 21.48
1245950.23 4851983.31 20.70
1245950.59 4851983.78 21.51
1245950.83 4851983.60 25.47
1245950.68 4851983.18 25.41
1245950.63 4851982.99 25.44
1245954.53 4851983.66 39.40
1245954.52 4851983.50 39.52
1245954.59 4851983.44 39.87
1245954.36 4851983.08 39.43
1245953.92 4851981.99 39.09
1245954.08 4851981.98 39.64
1245955.16 4851982.90 42.67
1245954.26 4851982.04 40.31
1245953.91 4851981.70 39.38
1245955.16 4851982.76 42.82
1245954.02 4851981.67 39.85
1245954.75 4851982.23 41.90
1245954.02 4851981.53 39.99
1245955.30 4851982.63 43.52
1245954.99 4851982.32 42.69
1245955.08 4851982.28 43.08
1245954.07 4851981.31 40.46
1245955.36 4851982.40 43.98
1245955.44 4851982.36 44.35
1245955.44 4851982.23 44.53
1245955.44 4851982.10 44.70
1245954.25 4851980.94 41.58
1245955.45 4851981.97 44.85
1245955.61 4851981.98 45.43
1245954.40 4851980.67 42.43
1245955.68 4851981.79 45.95
1245954.38 4851980.53 42.55
1245955.64 4851981.62 45.99
1245954.43 4851980.44 42.84
1245955.74 4851981.59 46.41
1245954.64 4851980.51 43.54
1245954.74 4851980.48 43.96
1245955.78 4851981.10 47.15
1245955.33 4851980.66 45.97
1245955.70 4851980.89 47.08
1245954.98 4851979.54 45.98
1245955.09 4851979.52 46.44
1245955.02 4851979.52 46.50
1245955.01 4851979.63 46.31
1245954.93 4851979.68 45.98
1245955.53 4851980.76 46.94
1245955.03 4851980.65 45.22
1245955.68 4851981.66 46.46
1245954.42 4851980.44 43.20
1245954.36 4851980.51 42.88
1245955.60 4851981.83 45.97
1245954.35 4851980.62 42.69
1245955.56 4851982.04 45.54
1245954.29 4851980.82 42.26
1245954.30 4851980.96 42.11
1245954.19 4851980.96 41.67
1245955.36 4851982.23 44.60
1245954.63 4851981.52 42.68
1245955.39 4851982.37 44.51
1245955.34 4851982.46 44.25
1245954.99 4851982.25 43.17
1245954.87 4851982.26 42.70
1245955.22 4851982.74 43.47
1245954.59 4851982.13 41.82
1245955.09 4851982.87 42.82
1245955.09 4851983.00 42.68
1245953.92 4851981.87 39.58
1245953.91 4851982.00 39.43
1245954.26 4851983.12 39.40
1245954.50 4851983.61 39.76
1245954.44 4851983.68 39.43
1245950.57 4851983.19 25.43
1245950.76 4851983.80 25.45
1245953.91 4851984.33 39.43
1245953.86 4851984.16 39.50
1245953.83 4851983.99 39.58
1245953.80 4851983.82 39.65
1245954.52 4851983.54 42.68
1245954.60 4851983.49 43.05
1245954.40 4851983.16 42.68
1245953.88 4851981.99 42.15
1245954.02 4851981.98 42.67
1245953.94 4851981.78 42.62
1245955.16 4851982.82 45.97
1245954.02 4851981.58 43.13
1245954.71 4851982.12 45.12
1245954.01 4851981.44 43.29
1245955.29 4851982.42 46.95
1245955.31 4851982.31 47.17
1245955.34 4851982.21 47.39
1245954.26 4851980.88 44.89
1245955.32 4851981.79 47.82
