231.59 221.27 261.46
231.34 221.22 261.13
230.99 221.34 261.41
231.7 221.04 269.85
230.68 221.33 261.34
231.44 223.69 265.96
231.14 223.72 265.84
230.39 221.36 261.37
231.14 221.07 270.34
231.32 219.12 275.48
231.08 219.24 275.2
230.94 221.2 270.41
230.18 221.49 261.4
230.94 223.84 266.03
230.67 223.82 265.92
229.93 221.47 261.54
229.59 221.52 261.22
230.36 223.88 265.98
230.03 221.48 270.24
230.0 219.55 275.4
229.85 221.5 270.56
229.06 221.8 261.26
228.89 221.74 261.47
229.65 221.44 270.4
229.8 219.49 275.39
228.57 221.62 261.27
229.33 223.98 265.91
228.91 224.05 265.99
228.16 221.69 261.53
228.72 219.69 275.43
228.56 221.65 270.46
227.8 221.94 261.54
228.54 224.3 265.9
228.27 224.2 266.07
227.31 221.93 261.56
228.06 224.28 266.06
227.91 219.91 275.07
227.41 221.74 270.6
226.65 222.04 261.71
227.39 224.39 266.13
227.05 224.44 266.02
226.31 222.09 261.62
227.06 221.79 270.44
227.21 219.84 275.36
226.02 222.07 261.6
226.76 224.44 266.01
226.1 222.0 270.24
225.36 222.3 261.63
226.1 224.65 266.09
225.77 220.13 275.5
225.61 222.09 270.56
224.86 222.39 261.79
225.6 224.74 266.18
225.42 222.13 270.65
225.58 220.18 275.58
225.26 220.3 275.55
225.08 222.26 270.4
224.36 222.34 270.58
223.61 222.64 261.77
224.37 224.99 266.45
224.15 224.87 266.18
223.42 222.51 261.91
223.54 224.92 266.26
223.19 222.44 270.79
222.42 222.74 261.8
223.17 225.1 266.28
222.88 225.1 266.28
222.15 222.75 262.02
220.42 219.58 250.37
220.49 219.92 250.6
220.52 220.26 250.37
222.9 220.79 275.75
220.56 220.61 250.29
220.65 221.29 250.21
220.71 221.64 250.28
220.75 221.98 250.22
222.37 225.25 266.32
221.62 222.89 261.82
222.36 222.59 270.54
220.63 221.83 252.61
220.67 221.5 253.62
220.36 221.48 250.21
220.61 221.16 253.54
220.53 220.82 253.21
220.46 220.47 253.0
220.39 220.13 252.7
220.33 219.79 252.62
220.11 219.77 250.23
220.16 219.76 254.52
220.21 220.1 254.51
220.32 220.44 255.2
220.38 220.78 255.37
220.46 221.12 255.65
220.49 221.47 255.51
220.45 221.8 254.5
220.1 222.12 250.19
221.27 222.85 261.85
221.74 225.4 265.61
221.02 223.05 261.35
221.83 222.75 270.84
219.88 221.98 250.52
220.36 221.67 256.33
220.34 221.0 257.13
221.97 220.79 275.5
220.24 220.66 256.58
220.17 220.31 256.39
220.1 219.97 256.2
219.72 219.6 252.57
219.76 219.68 254.33
220.13 220.05 257.91
220.18 220.4 257.91
221.85 220.86 275.59
220.19 220.73 257.46
219.52 220.68 250.11
220.21 221.07 257.19
220.35 221.41 258.2
220.12 221.73 255.12
219.74 222.05 250.36
221.68 222.82 270.6
221.42 222.89 270.64
219.47 222.12 250.23
219.83 221.8 254.82
220.21 221.49 259.52
220.26 221.16 260.54
221.59 220.94 275.63
220.18 220.82 260.17
219.26 220.75 250.18
220.09 220.48 259.77
220.04 220.14 259.74
219.62 219.77 255.75
219.97 219.95 263.47
219.27 219.89 255.82
220.03 220.29 263.6
220.08 220.63 263.6
221.21 221.06 275.43
220.15 220.97 263.82
220.2 221.31 263.93
220.19 221.64 263.3
219.84 221.62 259.39
219.36 221.92 253.68
219.1 222.24 250.3
220.66 225.6 266.4
219.94 223.25 262.17
220.68 222.95 270.79
219.98 222.59 263.65
219.95 222.25 263.87
218.73 222.18 250.56
219.92 221.92 264.06
219.13 221.87 255.42
220.22 221.61 267.84
219.55 221.56 260.53
220.16 221.28 267.7
220.82 221.0 275.42
220.12 220.94 267.88
220.09 220.61 268.04
219.53 220.56 261.91
219.98 220.27 267.34
219.64 219.9 264.16
218.56 219.8 252.45
219.54 219.56 263.67
219.5 219.23 263.76
219.36 219.23 263.67
219.41 219.57 263.7
219.86 219.94 268.09
218.25 219.79 250.63
219.91 220.28 268.14
219.97 220.62 268.28
220.03 220.95 268.39
220.08 221.29 268.47
220.1 221.62 268.11
219.64 221.59 263.16
220.16 221.95 268.24
219.73 221.92 263.56
218.99 221.87 255.49
220.21 222.28 268.32
218.72 222.19 251.94
219.84 222.59 263.74
220.54 222.96 270.86
219.9 222.93 263.9
219.86 223.26 262.88
220.5 225.62 266.31
220.39 225.5 267.13
220.44 225.17 268.19
220.41 224.84 268.41
220.36 224.51 268.34
220.29 224.17 268.11
220.28 223.84 268.46
220.21 223.51 268.31
220.18 223.17 268.45
219.73 223.15 263.53
220.13 222.84 268.43
219.68 222.82 263.54
220.1 222.51 268.71
219.63 222.48 263.44
218.41 222.41 250.06
220.06 222.17 268.77
219.57 222.14 263.34
218.54 222.08 252.01
219.95 221.84 268.07
218.97 221.77 257.35
219.97 221.51 268.8
219.54 221.48 264.14
220.13 221.19 271.12
219.89 221.17 268.44
220.05 220.86 270.76
219.4 220.8 263.64
219.92 220.52 269.81
219.83 220.18 269.37
219.71 219.84 268.58
218.02 219.68 250.13
219.65 219.51 268.4
219.19 219.46 263.45
219.61 219.18 268.47
219.53 218.84 268.19
219.13 218.8 263.77
219.49 218.51 268.22
219.06 218.46 263.6
219.4 218.17 267.8
218.86 216.32 267.87
218.94 216.66 268.21
218.98 216.99 268.15
219.04 217.33 268.29
219.09 217.67 268.32
219.12 218.0 268.11
219.26 219.0 268.1
218.87 218.96 263.82
219.31 219.34 268.15
218.9 219.29 263.64
219.79 219.71 272.87
219.83 220.05 272.77
218.99 219.96 263.59
219.94 220.39 273.48
219.99 220.72 273.51
218.62 220.6 258.53
220.03 221.05 273.39
218.71 220.94 258.94
220.06 221.38 273.26
220.06 221.7 272.74
218.9 221.62 260.03
220.11 222.03 272.71
219.63 222.0 267.52
218.63 221.94 256.56
219.73 222.34 268.04
219.31 222.32 263.51
219.39 222.65 263.79
220.09 223.02 270.95
219.88 223.34 268.17
219.27 223.32 261.42
219.93 223.68 268.2
219.96 224.01 268.06
220.01 224.35 268.03
220.06 224.68 268.13
220.11 225.01 268.09
220.16 225.35 268.16
220.19 225.68 268.0
219.6 225.74 266.24
219.47 223.74 268.0
219.47 223.41 268.45
219.79 223.09 272.57
219.43 223.08 268.56
219.75 222.76 272.55
219.38 222.74 268.58
219.3 222.41 268.23
219.64 222.1 272.4
219.24 222.08 268.07
219.2 221.74 268.17
218.86 221.72 264.5
219.62 221.45 273.24
219.77 221.13 275.44
218.78 221.05 264.6
219.73 220.8 275.54
219.48 220.78 272.74
218.76 220.72 264.92
219.6 220.47 274.57
218.74 220.39 265.27
218.95 220.08 268.06
219.32 219.79 272.63
218.91 219.74 268.1
219.27 219.45 272.56
219.22 219.12 272.56
218.81 219.07 268.05
219.18 218.79 272.64
218.76 218.74 268.06
218.71 218.41 268.06
218.68 218.08 268.2
218.63 217.75 268.23
218.58 217.42 268.17
218.54 217.08 268.23
218.47 216.75 268.04
218.44 216.41 268.26
218.9 218.96 272.58
218.95 219.29 272.65
218.57 219.25 268.51
219.0 219.62 272.7
218.61 219.58 268.43
219.03 219.95 272.52
218.67 219.92 268.57
218.69 220.25 268.33
219.43 220.65 275.81
218.73 220.58 268.22
219.5 220.98 276.11
219.53 221.31 275.95
218.94 221.59 269.01
219.33 221.95 272.72
218.97 221.92 268.76
219.37 222.28 272.66
219.41 222.61 272.54
219.03 223.19 270.83
219.02 221.55 273.33
219.0 221.23 273.69
218.97 220.9 273.85
218.91 220.56 273.71
218.78 220.22 272.84
218.72 219.89 272.71
218.87 221.32 275.35
218.71 223.28 270.64
218.66 225.94 265.95
218.47 221.46 275.37
218.17 221.56 275.38
217.76 223.42 270.73
217.89 221.46 275.23
217.01 226.19 265.98
217.04 223.53 270.45
217.19 221.57 275.19
216.83 221.68 275.3
216.68 223.64 270.71
215.83 223.94 260.99
216.4 223.7 270.7
216.56 221.74 275.44
216.32 221.75 274.94
216.19 223.72 270.53
216.01 221.87 275.05
215.73 221.98 275.51
215.04 226.41 265.75
214.33 224.06 261.6
214.8 223.88 270.23
214.01 224.19 261.13
214.74 226.55 265.61
214.38 226.57 265.54
214.44 223.91 270.27
